0.28592255451456494,0.2934597162372976,0.3010602679360588,0.30872385579989303,0.3164505729082176,0.32424099176805893,0.33209619584441463,0.34001780986733077,0.34800802869807584,0.35606964453683343,0.36420607225567475,0.37242137264322117,0.38072027335139447,0.38910818733996655,0.3975912286212786,0.4061762251154749,0.4148707284358738,0.42368302043464756,0.43262211635076214,0.44169776441509484,0.45092044178173696,0.46030134666964284,0.469852386614935,0.4795861627512267,0.48951595005320997,0.4996556734973659,0.510019880112909,0.5206237069158601,0.5314828447393496,0.5426134979937869,0.5540323404112627,0.5657564668493847,0.5778033412505422,0.5901907408732767,0.6029366969328468,0.6160594318081374,0.6295772929916383,0.6435086839782302,0.6578719923068252,0.6726855149864406,0.6879673815549462,0.7037354750343882,0.7200073510614398,0.7368001554849982,0.7541305407352534,0.7720145812795498,0.7904676884900683,0.8095045252566402,0.8291389206849036,0.8493837852254212,0.8702510265833234,0.8917514667604504,0.9138947605828747,0.9366893160660531,0.9601422169676882,0.9842591478747047,1.0090443221655416,1.0345004131822981,1.0606284889391093,1.0874279506835751,1.1148964756171011,1.1430299640677135,1.1718224913952977,1.2012662648943897,1.2313515859435997,1.2620668176336258,1.293398358087586,1.3253306196682257,1.357846014246444,1.3909249446846401,1.4245458026666795,1.4586849729839024,1.493316844363601,1.5284138269029226,1.5639463761472188,1.5998830238276196,1.6361904152480937,1.672833353287608,1.7097748489582432,1.7469761784354405,1.784396946451936,1.8219951559225613,1.8597272836429972,1.8975483618818665,1.9354120656623288,1.9732708055067019,2.0110758253956336,2.0487773056721266,2.0863244706003,2.123665700269308,2.1607486465143366,2.1975203525092293,2.233927375669033,2.269915913485776,2.305431931907087,2.3404212958549415,2.3748299014709433,2.408603809665146,2.441689380537583,2.474033408235405,2.5055832558039284,2.5362869895869227,2.566093512730247,2.5949526973433983,2.622815514875764,2.6496341642683268,2.675362197447275,2.699954641733443,2.723368118750635,2.7455609594268355,2.766493314694772,2.7861272615125494,2.8044269038408007,2.8213584682300965,2.8368903936911276,2.850993415540311,2.8636406429349375,2.8748076298346894,2.8844724391501613,2.892615699863902,2.899220656935279,2.904273213827088,2.9077619675191313,2.909678235901905,2.9100160774718726,2.908772303278476,2.905946481101947,2.901540931869882,2.895560718349465,2.8880136261808644,2.8789101373457027,2.8682633961923636,2.856089168167186,2.8424057914271748,2.82723412153556,2.81059746946632,2.7925215331674407,2.7730343229552217,2.7521660810331174,2.7299491954484614,2.7064181088187973,2.68160922217635,2.655560794294382,2.6283128368727384,2.599907005971644,2.570386490092902,2.539795895315811,2.5081811279015844,2.4755892747845403,2.442068482371113,2.4076678340685658,2.3724372269643546,2.336427248074369,2.299689050573742
0.26458375561951303,0.27173035670892987,0.2789517302342469,0.2862484144996116,0.2936213849636998,0.30107208393294316,0.30860244925297353,0.31621494179537096,0.32391257153566033,0.33169892201854667,0.33957817300761695,0.34755512111920833,0.35563519824385315,0.3638244875636729,0.3721297369803004,0.3805583697753604,0.3891184923342089,0.3978188987734903,0.4066690723241004,0.41567918333327925,0.4248600837627685,0.43422329807417465,0.44378101040784323,0.45354604797756903,0.4635318606202868,0.4737524964574102,0.48422257364262744,0.49495724818962994,0.505972177892336,0.5172834823695921,0.5289076992859669,0.5408617368200096,0.5531628224710985,0.5658284483156777,0.5788763128431313,0.5923242595207014,0.6061902122555805,0.6204921079405383,0.6352478262870453,0.6504751171667417,0.6661915256982065,0.6824143153311758,0.699160389194602,0.7164462099881277,0.7342877187086259,0.7527002525143383,0.7716984620388059,0.7912962284751252,0.811506580758091,0.8323416131774309,0.8538124037595604,0.8759289337580929,0.8987000085946841,0.922133180591684,0.946234673836469,0.9710093115143035,0.9964604460420479,1.0225898923291101,1.049397864484638,1.0768829162811995,1.1050418856750635,1.1338698436717247,1.163360047812577,1.1935039005446477,1.2242909127201391,1.2557086724562132,1.2877428195680753,1.3203770257700356,1.3535929808198894,1.3873703847617662,1.4216869464015869,1.456518388127576,1.4918384571658745,1.5276189433384135,1.5638297033667794,1.6004386917420228,1.6374119981562436,1.6747138914674886,1.7123068701450284,1.7501517191176148,1.7882075729228806,1.8264319850317685,1.8647810031978445,1.9032092506576261,1.941670012984815,1.9801153303785255,2.0184960951434947,2.0567621540987924,2.0948624156309275,2.1327449610874543,2.170357160188425,2.2076457901152464,2.2445571579199366,2.2810372258823386,2.3170317394287663,2.3524863572127943,2.3873467829475774,2.4215588985692427,2.4550688983026046,2.487823423193746,2.5197696956689515,2.550855653676089,2.581030083962873,2.610242754046504,2.638444542431018,2.6655875666322375,2.691625308575618,2.71651273693938,2.7402064260242027,2.762664670741367,2.7838475973235397,2.8037172693763543,2.822237788904534,2.839375391963447,2.8550985386056125,2.8693779968117408,2.8821869201173143,2.8935009186683516,2.9032981234638515,2.911559243567297,2.9182676160954446,2.923409248819323,2.9269728552397813,2.9289498820279434,2.929334528749436,2.9281237598200853,2.925317308669857,2.920917674120937,2.9149301090149584,2.907362601153244,2.8982258466425583,2.8875332157669216,2.8753007115336047,2.86154692106822,2.84629296005978,2.8295624104816235,2.811381251837994,2.791777786208844,2.7707825573868345,2.7484282644206,2.7247496698969047,2.6997835033113615,2.673568359892792,2.6461445952599982,2.617554216301715,2.587840768680681,2.5570492213711393,2.5252258486456007,2.4924181099313714,2.4586745279601514,2.424044565634964,2.3885785020378005,2.3523273079986535,2.3153425216421604
0.2446653388280235,0.25144672211898494,0.2583134413463419,0.26526686425349816,0.2723087865607444,0.27944145900536066,0.2866676133849626,0.293990487413773,0.30141384820044526,0.308942014156095,0.31657987514235586,0.3243329106715684,0.3322072059746743,0.34020946575700917,0.3483470254679868,0.35662785991761725,0.3650605890809073,0.37365448094041176,0.38241945122752286,0.3913660599344533,0.400505504481249,0.4098496094355024,0.41941081269666475,0.4292021480719267,0.4392372241864504,0.44953019968724417,0.46009575471707853,0.47094905865245823,0.4821057341177089,0.49358181730561457,0.5053937146536454,0.5175581559435707,0.5300921439110255,0.5430129004703295,0.5563378096784147,0.5700843575800206,0.5842700690942509,0.598912442120077,0.6140288790553126,0.6296366159398694,0.6457526494496892,0.6623936619824924,0.6795759450903611,0.6973153215270711,0.7156270661899599,0.7345258262468823,0.7540255407484233,0.7741393600339308,0.7948795652470765,0.8162574882824977,0.8382834324895879,0.8609665944626417,0.8843149872483345,0.9083353653018885,0.9330331515222149,0.9584123666938915,0.9844755616599445,1.011223752544162,1.0386563593349898,1.0667711481350535,1.0955641773709786,1.1250297482475213,1.1551603597180418,1.1859466682302002,1.2173774524913528,1.249439583482625,1.2821179999340198,1.3153956894553012,1.349253675498781,1.3836710103106398,1.4186247740070757,1.4540900798904863,1.4900400860990877,1.5264460136610123,1.5632771710009834,1.6005009849243237,1.6380830380793188,1.6759871128749826,1.7141752418070764,1.7526077641209927,1.791243388715825,1.8300392631697955,1.8689510487432177,1.9079330011914708,1.9469380571971484,1.985917926207683,2.024823187442479,2.0636033918119474,2.1022071684699917,2.140582335701449,2.1786760158269227,2.2164347537893803,2.2538046390699207,2.2907314305643744,2.3271606840378967,2.36303788176155,2.3983085639231767,2.432918461394562,2.466813629428205,2.4999405818498897,2.5322464253077697,2.563678993134895,2.594186978380064,2.6237200655615256,2.652229060699586,2.6796660191873447,2.705984371063877,2.731139043260971,2.7550865784031386,2.7777852497509703,2.7991951718899752,2.819278406780834,2.8379990648023785,2.855323400435631,2.871219902255748,2.885659376918682,2.8986150268507354,2.910062521371795,2.9199800610068793,2.928348434765513,2.9351510701943715,2.9403740760353556,2.944006277348807,2.9460392429896616,2.946467305353003,2.9452875723344407,2.9424999314799676,2.938107046329276,2.9321143449857643,2.9245300009755817,2.915364906486815,2.904632638108264,2.8923494152149902,2.8785340511748347,2.8632078975763147,2.8463947817035007,2.828120937507639,2.8084149303482286,2.787307575797904,2.764831852825759,2.7410228116925026,2.715917476908076,2.6895547456179076,2.661975281797898,2.633221406650315,2.603336985603137,2.572367312323851,2.540358990165365,2.507359811466464,2.4734186351321004,2.438585262919899,2.4029103148583477,2.3664451042195696,2.3292415124650803
0.2261214082446738,0.23256201534238907,0.23909772166374005,0.24573066332617421,0.252463395775237,0.25929891835647173,0.2662406978955488,0.2732926911080501,0.2804593656593489,0.2877457196950495,0.2951572996635302,0.302700216254266,0.3103811582788349,0.31820740432582156,0.32618683202624343,0.33432792477261547,0.34263977574234683,0.35113208908478455,0.3598151781408822,0.36869996057511945,0.37779795031091007,0.3871212461732508,0.3966825171557299,0.40649498424318725,0.4165723987362046,0.42692901703916325,0.43757957188974483,0.44853924002439677,0.45982360629134694,0.4714486242401599,0.4834305732344732,0.49578601215236917,0.5085317297566955,0.5216846918355055,0.5352619852305058,0.5492807588889019,0.563758162091239,0.5787112800246256,0.5941570668870567,0.6101122767242668,0.6265933922156481,0.6436165516400878,0.6611974742661183,0.6793513844233948,0.698092934524201,0.7174361273143284,0.7373942376422619,0.7579797340440256,0.779204200448314,0.8010782583125529,0.8236114895053133,0.8468123602539582,0.8706881464785682,0.895244860834,0.9204871817813836,0.9464183850084676,0.9730402775149442,1.0003531346742596,1.0283556405774215,1.057044831956996,1.0864160459808299,1.116462872195108,1.147177108885125,1.178548724109726,1.2105658216517319,1.2432146121118843,1.276479389357959,1.3103425125237766,1.344784393734908,1.3797834917190326,1.4153163114391876,1.4513574098676367,1.4878794079968438,1.5248530091621644,1.5622470237283892,1.6000284001693423,1.6381622625463579,1.6766119543678082,1.7153390887879014,1.7543036050789653,1.7934638312872702,1.8327765529584343,1.8721970877944953,1.911679366081053,1.951176016699546,1.9906384585167682,2.0300169969213493,2.069260925255131,2.108318630866307,2.14713770549094,2.1856650596501392,2.223847040731784,2.2616295544084895,2.298958189027326,2.3357783425920347,2.3720353519449207,2.4076746237435236,2.442641766816517,2.476882725474196,2.5103439133414196,2.542972347275004,2.5747157809234262,2.6055228374842465,2.6353431412140162,2.664127447246544,2.691827769278319,2.71839750468463,2.743791556636447,2.767966452796475,2.790880460182906,2.8124936958012476,2.8327682326581964,2.8516682007867695,2.8691598829287464,2.885211804538912,2.8997948177954425,2.912882179322092,2.924449621350403,2.934475416073989,2.9429404329718496,2.94982818890361,2.955124890806376,2.9588194708504854,2.9609036139396556,2.9613717774697568,2.9602212032895663,2.957451921836201,2.9530667484474162,2.947071271882367,2.9394738351117224,2.930285508466949,2.9195200552671228,2.9071938900695367,2.893326029717602,2.877938037385927,2.861053959847846,2.842700258215053,2.822905732422075,2.801701439750221,2.779120607706029,2.7551985415882267,2.7299725270945787,2.703481728335733,2.675767081637214,2.646871185522958,2.616838187284248,2.585713666546516,2.553544516253211,2.520378821490803,2.4862657365819514,2.4512553608749696,2.4153986136569356,2.378747108615192,2.34135302826757
0.2089013396785993,0.21502462500893427,0.2212519939605963,0.2275862917711492,0.23403077485489854,0.24058913308490712,0.24726551108822653,0.2540645283866884,0.2609912982146799,0.2680514448453473,0.27525111925767354,0.28259701297886186,0.29009636993946686,0.2977569961827311,0.3055872672746401,0.31359613326727226,0.3217931210751033,0.33018833413199555,0.3387924492056499,0.34761671025628127,0.35667291923717315,0.36597342374651815,0.3755311014525199,0.38535934122706783,0.3954720209373209,0.40588348185921186,0.41660849969212266,0.4276622521697214,0.43906028327810154,0.45081846410887527,0.46295295039161843,0.47548013676701395,0.4884166078790464,0.5017790863816393,0.5155843779720619,0.5298493135801987,0.5445906888592809,0.5598252011398437,0.5755693840244033,0.5918395398155497,0.6086516699847945,0.6260214039034366,0.6439639260699282,0.6624939020805869,0.6816254036020096,0.7013718326140754,0.7217458452019687,0.7427592751841182,0.7644230578703097,0.7867471542504283,0.8097404759192894,0.8334108110467838,0.8577647517050748,0.8828076228658086,0.908543413380213,0.9349747092535757,0.9621026295228561,0.9899267650421623,1.018445120475433,1.047654059789,1.0775482555287148,1.108120642157071,1.1393623737152219,1.1712627860630547,1.203809363937536,1.236987713055457,1.2707815374714777,1.3051726223861253,1.3401408225810898,1.3756640566409406,1.4117183071012462,1.448277626643115,1.4853141504334486,1.522798114688793,1.5606978815186332,1.598979970081427,1.6376090940636412,1.6765482054686953,1.7157585446790298,1.7551996967306804,1.7948296537157888,1.8346048832045172,1.8744804025539903,1.9144098589482028,1.954345614989463,1.9942388396389397,2.034039604281375,2.073696983667103,2.1131591614632725,2.1523735401257156,2.1912868547833217,2.22984529080816,2.2679946047270536,2.3056802481138985,2.342847494086872,2.3794415660208212,2.415407768072673,2.450691617106742,2.485238975597343,2.5189961850782754,2.551910199702556,2.583928719471251,2.615000322687516,2.645074597190956,2.674102269928218,2.7020353344183774,2.728827175676094,2.754432692161824,2.7788084143364387,2.8019126194075064,2.823705441866145,2.8441489794267505,2.8632073939970044,2.880847007322258,2.8970363909667225,2.9117464503136583,2.9249505022879885,2.9366243465273127,2.9467463297510705,2.955297403102536,2.9622611722642596,2.9676239401744247,2.971374742199223,2.9735053736446546,2.9740104095199595,2.9728872164941467,2.970135957016519,2.965759585601722,2.959763837309396,2.9521572084779453,2.9429509298010235,2.93215893186404,2.919797803286052,2.9058867416398333,2.890447497349425,2.873504310790086,2.8550838428400462,2.8352150991567853,2.8139293484725494,2.7912600352244317,2.767242686853435,2.7419148161244675,2.7153158188350996,2.687486867295058,2.658470799970826,2.628312007700282,2.597056316891014,2.5647508701227943,2.5314440045796234,2.497185128739812,2.4620245977537105,2.4260135879379696,2.389203970812663,2.351648187103187
0.19295064864016867,0.19877901007715237,0.2047196841465877,0.21077616793135687,0.21695236200415247,0.22325259059080932,0.22968162075187612,0.23624468042489938,0.2429474751690336,0.2497962034536071,0.2567975703332045,0.26395879935367517,0.2712876425362841,0.2787923882909702,0.28648186711439516,0.29436545493413924,0.302453073967021,0.31075519096708043,0.3192828127472403,0.3280474788680272,0.3370612513969631,0.34633670165328256,0.3558868938644575,0.36572536567357,0.3758661054498018,0.3863235263681605,0.39711243723896894,0.4082480100825419,0.41974574445977897,0.43162142858507513,0.4438910972638675,0.4565709867132725,0.46967748634048384,0.48322708756988264,0.4972363298260133,0.5117217437956606,0.526699792108126,0.5421868075883638,0.5581989292528282,0.5747520362326013,0.5918616798225715,0.609543013869003,0.6278107237207462,0.6466789539814629,0.6661612353115781,0.6862704105390969,0.7070185603479305,0.7284169288208606,0.7504758491217307,0.7732046696077972,0.7966116806684027,0.8207040425901543,0.8454877147516461,0.8709673864523588,0.8971464096807089,0.9240267341253068,0.9516088447312581,0.9798917020998548,1.0088726860251913,1.0385475424551684,1.068910334156974,1.099953395358508,1.1316672906273244,1.1640407782375741,1.1970607782631237,1.2307123456215754,1.2649786482793184,1.2998409508121038,1.3352786034989124,1.371269037109252,1.4077877635253944,1.444808382321647,1.482302593402472,1.520240215780333,1.5585892125524985,1.5973157221138585,1.6363840956200988,1.6757569406925097,1.7153951713322435,1.7552580639882271,1.795303319699097,1.8354871322057142,1.8757642619070156,1.916088115508307,1.9564108311877328,1.996683369083589,2.036855606882574,2.0768764402670077,2.116693887957679,2.156255201068327,2.195506976467976,2.2343952738284982,2.27286573601699,2.3108637124758515,2.348334385218044,2.3852228970508267,2.42147448162854,2.4570345949236923,2.4918490476958564,2.5258641385296947,2.559026787006923,2.5912846665722093,2.622586336649925,2.652881373567387,2.6821204998407415,2.710255711381989,2.7372404021898546,2.7630294860932056,2.787579515123615,2.810848794103317,2.8327974910462856,2.8533877429833936,2.872583756837528,2.8903519049911375,2.906660815206873,2.9214814545816807,2.934787207235852,2.9465539454610448,2.9567600940750296,2.965386687755828,2.972417421153867,2.977838691607629,2.9816396343159743,2.9838121498486414,2.984350923905346,2.9832534392631858,2.9805199798816386,2.9761536271641362,2.9701602484048912,2.9625484774791873,2.9533296878645907,2.942517958109333,2.930130029892382,2.916185258847209,2.9007055583479957,2.88371533648272,2.865241426462226,2.845313010737842,2.823961539122218,2.801220641228837,2.777126033564853,2.7517154216295854,2.7250283973869793,2.6971063324946374,2.667992267684479,2.6377307987007947,2.6063679592102265,2.5739511011051506,2.540528772626937,2.5061505947386706,2.470867136178128,2.4347297876211296,2.3977906353828464,2.360102335080287
0.1782118190224246,0.18376654433176115,0.1894410811991312,0.19523952339353093,0.20116636091713466,0.2072264982136171,0.21342527139981343,0.21976846437256595,0.22626232364180457,0.23291357174091948,0.23972941906635,0.24671757400003738,0.2538862511710062,0.2612441777158396,0.26880059740222584,0.27656527248505547,0.28454848317075254,0.2927610245726067,0.30121420104782304,0.309919817815803,0.31889016976678053,0.3281380273803298,0.33767661968439966,0.34751961419736876,0.357681093808106,0.3681755305621085,0.379017756335426,0.3902229303921917,0.40180650383611194,0.4137841809811495,0.42617187768179166,0.43898567667867255,0.4522417800308045,0.4659564587212446,0.4801459995385507,0.4948266493518245,0.5100145569123979,0.5257257123302319,0.5419758843877751,0.5587805558682972,0.5761548570895094,0.5941134978465108,0.6126706979807217,0.6318401168033699,0.651634781613261,0.672067015558897,0.6931483651044636,0.714889527367719,0.7373002776053483,0.7603893971278397,0.7841646019313482,0.8086324723382975,0.8337983839416098,0.8596664401494052,0.8862394066277381,0.9135186479384564,0.9415040666675109,0.9701940453360619,0.9995853913824329,1.0296732854974557,1.0604512335889325,1.091911022642914,1.1240426807401787,1.1568344414758176,1.1902727130181059,1.2243420520299946,1.259025142662535,1.2943027808144805,1.3301538638361516,1.366555385838532,1.4034824387504603,1.4409082192478349,1.4788040416589328,1.5171393569294123,1.55588177770932,1.5949971096025803,1.634449388597067,1.6742009246705283,1.7142123515444463,1.754442682534463,1.7948493724223367,1.8353883852506967,1.87601426791813,1.9166802294285297,1.9573382256252587,1.9979390492175828,2.038432424884186,2.0787671092164226,2.118890995242455,2.158751221252611,2.1982942836263533,2.237466153342166,2.276212395833684,2.3144782938384436,2.3522089728699473,2.389349528929327,2.4258451580598512,2.461641287335939,2.496683706868305,2.5309187023983877,2.5642931880484,2.5967548387882653,2.628252222177321,2.658734928937125,2.6881537019119577,2.716460562975701,2.743608937447714,2.76955377558615,2.7942516707347744,2.8176609737088465,2.8397419030169,2.860456650528329,2.8797694822114503,2.8976468335832,2.9140573995296726,2.92897221817633,2.9423647485077806,2.9542109414594706,2.9644893042273317,2.9731809575663246,2.980269685874768,2.985741979888192,2.989587071834196,2.991796962928145,2.9923664431184984,2.9912931030199337,2.98857733800205,2.9842223444312483,2.9782341080931367,2.970621384852474,2.9613956736369804,2.950571181860292,2.9381647834276663,2.924195969495695,2.9086867921841173,2.891661801463644,2.8731479754684948,2.853174644505918,2.8317734090572095,2.8089780520856205,2.7848244459858664,2.759350454527743,2.7325958301624236,2.704602107074402,2.675412490374621,2.6450717418410696,2.613626062622038,2.5811229733241787,2.547611191912625,2.5131405098535646,2.477761666930947,2.4415262251683396,2.4044864422844743,2.36669514510668
0.164625085654522,0.1699263138621282,0.1753541492058681,0.18091322920401912,0.1866085807469004,0.19244563650602653,0.19843025037180778,0.20456871178030905,0.21086775878882938,0.2173345897600717,0.22397687351547824,0.23080275781991375,0.23782087606232177,0.24504035200025143,0.2524708024402782,0.26012233773130744,0.2680055599535628,0.2761315586927062,0.28451190429600137,0.293158638515699,0.30208426245386577,0.3113017217326661,0.32082438882460795,0.33066604248844234,0.3408408442682078,0.35136331202529936,0.3622482904863587,0.373510918803179,0.3851665951346145,0.3972309382746576,0.40971974636528474,0.42264895274735215,0.43603457901763154,0.4498926853749894,0.46423931835361487,0.4790904560560507,0.49446195101348317,0.5103694708152423,0.5268284366636737,0.5438539600243791,0.5614607775552534,0.579663184510645,0.5984749668293246,0.6179093321266307,0.6379788398221854,0.6586953306447882,0.6800698557655247,0.7021126058186423,0.7248328400773529,0.7482388160583295,0.7723377198342534,0.797135597338276,0.8226372869476691,0.8488463536362084,0.875765024985912,0.9033941293486789,0.9317330364470341,0.960779600700668,0.9905301075616525,1.0209792231362071,1.052119947364603,1.0839435710233014,1.1164396368046545,1.1495959047195705,1.1833983220573745,1.217830998124792,1.2528761839725062,1.2885142573032085,1.3247237127394,1.3614811576126011,1.3987613134179793,1.4365370230599233,1.4747792639946908,1.5134571673561221,1.5525380431295255,1.5919874114173342,1.6317690398180416,1.6718449869173688,1.7121756518676432,1.7527198300081102,1.7934347744553867,1.8342762635696952,1.875198674178841,1.9161550604183675,1.9570972380229477,1.9979758738809432,2.0387405806414,2.0793400161404745,2.1197219873927144,2.1598335588716338,2.1996211647839505,2.239030725022592,2.2780077644653773,2.3164975352691526,2.3544451417932417,2.3917956677714076,2.4284943053382624,2.4644864855042172,2.4997180096627627,2.534135181705136,2.5676849403103885,2.6003149909734815,2.631973937330437,2.6626114113377817,2.6921782018634905,2.720626381248554,2.7479094294019486,2.7739823549974463,2.7988018133480823,2.82232622054344,2.8445158634459973,2.8653330051556862,2.884741985566464,2.902709316655026,2.919203772159733,2.9341964713273763,2.9476609564263505,2.9595732637472203,2.969911987835298,2.978658338724723,2.9857961919694316,2.9913121312933098,2.995195483709493,2.997438346987208,2.9980356093735128,2.9969849615067,2.994286900487823,2.9899447261066383,2.9839645292481145,2.976355172535365,2.9671282632942826,2.9562981189541633,2.94388172502704,2.929898685836198,2.9143711681912405,2.8973238382330258,2.878783791696661,2.8587804778644075,2.8373456175027005,2.814513115098441,2.7903189657291536,2.764801156919454,2.7379995658524607,2.709955852319226,2.68071334780193,2.6503169410974095,2.618812960896522,2.586249055741928,2.552674071791981,2.518137928821653,2.48269149489271,2.446386460124767,2.4092752099963897,2.3714106986010806
0.15212916523922312,0.15719586192925292,0.1623952858228964,0.16773256755224747,0.17321322062072841,0.17884315616087343,0.1846286967260144,0.1905765889843698,0.19669401518333512,0.20298860325177895,0.20946843540889698,0.21614205514967783,0.22301847247931622,0.23010716727197078,0.23741809063312674,0.24496166414947884,0.2527487769157034,0.26079078023372704,0.2690994798871199,0.27768712590101885,0.28656639970650344,0.2957503986375828,0.3052526176988595,0.31508692855251147,0.325267555684394,0.3358090497208094,0.3467262578797472,0.3580342915531237,0.36974849102968343,0.3818843873817258,0.3944576615526034,0.4074841006959719,0.42097955183194957,0.43495987289965377,0.44944088129989845,0.4644383000361385,0.4799677015759278,0.49604444956917343,0.5126836385732432,0.529900031948416,0.5477079981002533,0.5661214452580623,0.5851537549907236,0.6048177146726534,0.625125449123524,0.6460883516555012,0.6677170147711351,0.6900211607635609,0.7130095724783329,0.7366900245029353,0.7610692150557479,0.7861526988509652,0.8119448212196145,0.8384486537693822,0.865665931867356,0.8935969942300759,0.9222407249043425,0.9515944979201281,0.9816541248935803,1.0124138058535637,1.0438660835593798,1.0760018015703126,1.10881006631938,1.1422782134342624,1.176391778537703,1.2111344727478994,1.2464881630864246,1.282432857987153,1.318946698084534,1.3560059524433652,1.393585020375052,1.4316564389672615,1.4701908964348833,1.5091572513804494,1.548522558031614,1.5882520975021166,1.6283094151008295,1.6686563636912024,1.7092531530806525,1.7500584053963817,1.791029216380761,1.8321212225159291,1.8732886738637278,1.9144845124835754,1.9556604562675497,1.9967670880088328,2.0377539494969574,2.0785696404109766,2.1191619217600093,2.159477823599553,2.1994637567317135,2.2390656280781314,2.2782289593959897,2.3168990089902013,2.355020896058735,2.392539727293202,2.4294007253433105,2.465549358741768,2.500931472875637,2.5354934215812395,2.5691821989323618,2.601945570785952,2.63373220564565,2.6644918044014507,2.6941752285036014,2.7227346261304657,2.7501235559136212,2.7762971077888277,2.801212020548773,2.8248267956826174,2.8471018070983014,2.8679994063363394,2.8874840228983008,2.905522259329426,2.922082980712619,2.9371373982505293,2.9506591466332828,2.9626243549117794,2.9730117106200256,2.981802516914817,2.988980742526938,2.994533064344919,2.998448902480066,3.0007204476899054,3.00134268106614,3.00031338592266,2.9976331518488637,2.993305370923411,2.9873362261134413,2.9797346719140263,2.9705124073121207,2.959683841188332,2.9472660502983317,2.9332787300035457,2.9177441379477242,2.9006870309020316,2.8821345950262085,2.862116369817125,2.8406641660384446,2.817811977946172,2.793595890144324,2.7680539794229433,2.741226211946864,2.713154336178202,2.683881771928243,2.6534534959452962,2.6219159244540706,2.5893167930692567,2.5557050345111683,2.5211306545545535,2.4856446066430475,2.4492986656011615,2.4121453008732754,2.374237549714832
0.140661931476691,0.14551187694351975,0.15050002279296193,0.15563194449010587,0.16091359419611223,0.16635131401426262,0.1719518482754468,0.1777223547389445,0.18367041458369956,0.18980404106528562,0.19613168671446168,0.20266224895461687,0.20940507401753977,0.21636995903981476,0.22356715222576973,0.23100735096726766,0.238701697815759,0.246661774207877,0.25489959185246724,0.26342758169427183,0.27225858037752293,0.2814058141414225,0.2908828800888549,0.30070372477968516,0.3108826201105815,0.32143413645444113,0.3323731130441486,0.3437146255975056,0.35547395119268677,0.3676665304164636,0.38030792682060877,0.39341378373533725,0.40699977850222835,0.42108157420282616,0.43567476897289314,0.45079484300607864,0.4664571033644693,0.4826766267270578,0.4994682002205245,0.516846260489803,0.5348248311786478,0.5534174590027412,0.5726371486097392,0.5924962964319563,0.613006623748108,0.6341791091805665,0.6560239208639089,0.6785503485290693,0.7017667357551123,0.7256804126474579,0.7502976292072681,0.7756234896615954,0.8016618880277733,0.8284154451883365,0.8558854477544715,0.8840717889965903,0.9129729121200487,0.9425857561623032,0.9729057047848557,1.003926538229211,1.035640388700725,1.068037699437659,1.101107187714984,1.1348358120235058,1.169208743654712,1.2042093429104055,1.239819140143688,1.2760178218242633,1.3127832218063133,1.3500913179614702,1.387916234322643,1.4262302488667795,1.4650038070460238,1.5042055411573223,1.5438022956203061,1.583759158212403,1.6240394972885797,1.664605004991078,1.7054157464319584,1.7464302148083732,1.7876053923873303,1.8288968172733169,1.870258655848742,1.9116437807537012,1.953003854248274,1.994289416777467,2.035449980536173,2.07643412780919,2.1171896138395905,2.15766347395759,2.1978021346817354,2.2375515284847247,2.2768572118976484,2.315664486608991,2.353918523198444,2.391564487130547,2.4285476666194863,2.464813601964143,2.5003082159417427,2.534977944839282,2.568769869694431,2.6016318473117765,2.6335126406162637,2.6643620479034116,2.694131030545502,2.722771838714367,2.7502381346847407,2.7764851132873374,2.8014696190878974,2.82515025987742,2.847487516069538,2.8684438456136543,2.887983784046772,2.9060740393230553,2.9226835810778886,2.937783724002506,2.9513482050260684,2.9633532540242977,2.973777657797309,2.982602817084005,2.9898127964062553,2.9953943665628855,2.9993370396211554,3.0016330962818025,3.0022776055226914,3.00126843645553,2.998606262359835,2.99429455688822,2.9883395824669896,2.9807503709457945,2.9715386965796284,2.960719041455526,2.9483085535048694,2.934326997270073,2.9187966976214113,2.901742476645839,2.883191583954645,2.8631736206805463,2.841720457457332,2.8188661466962284,2.7946468294927223,2.769100637515547,2.742267590245845,2.714189487949091,2.6849098007751038,2.6544735543924562,2.6229272125725847,2.5903185571460887,2.556696565758922,2.5221112878594654,2.486613719348877,2.4502556763265586,2.4130896683601972,2.3751687717055843
0.13016103141132462,0.13481082053349736,0.1396036654487851,0.1445455405588185,0.14964279107698525,0.15490214489417567,0.16033072348971653,0.1659360517701114,0.17172606671758622,0.17770912473043832,0.18389400753783836,0.19028992657304733,0.1969065256910092,0.20375388211897127,0.2108425055321828,0.2181833351508295,0.22578773475918065,0.23366748555345115,0.24183477673110998,0.2503021937412836,0.25908270412349577,0.2681896408702319,0.2776366832576923,0.28743783509858634,0.29760740038086486,0.3081599562668842,0.31911032343858003,0.3304735337857728,0.34226479544667576,0.35449945522199067,0.3671929583965935,0.380360806015696,0.39401850967542684,0.40818154390100436,0.4228652961989545,0.438085014883139,0.45385575478762075,0.47019232099254293,0.48710921070218455,0.5046205534270752,0.5227400496345045,0.5414809080438039,0.5608557817544257,0.5808767034059558,0.6015550195797807,0.6229013246620723,0.6449253943970239,0.6676361193678053,0.6910414386504344,0.7151482738926701,0.7399624640760182,0.7654887012240017,0.7917304673239162,0.8186899727323398,0.8463680963366356,0.8747643277455832,0.9038767117820222,0.9337017955490159,0.9642345783384657,0.9954684646473817,1.0273952205620542,1.0600049337642568,1.0932859774062273,1.1272249780926769,1.1618067881982979,1.1970144627383794,1.232829240998045,1.2692305331124614,1.3061959117760769,1.3437011092436109,1.3817200197691464,1.420224707612369,1.4591854207227366,1.4985706101932805,1.5383469555558364,1.5784793959689107,1.618931167328105,1.659663845307216,1.7006373943157953,1.741810222336261,1.7831392415806189,1.8245799348836287,1.866086427725931,1.907611565757264,1.949106997666685,1.990523263223622,2.031809886290866,2.0729154725882504,2.1137878119639777,2.1543739849093733,2.194620473032411,2.234473273185763,2.273878014926509,2.3127800809670362,2.351124730260249,2.388857223347034,2.425922949580054,2.462267555825574,2.497837076234057,2.5325780626609866,2.5664377153116353,2.5993640131775444,2.631305843828242,2.6622131321193017,2.6920369673772404,2.7207297286230534,2.748245207399291,2.7745387277706666,2.7995672630750605,2.823289549010602,2.8456661926551408,2.866659777026888,2.8862349608092037,2.904358572878513,2.92099970129189,2.9361297764101013,2.949722647852556,2.9617546550028018,2.9722046908065876,2.9810542586292463,2.988287521964869,2.9938913468165285,2.9978553365944154,3.00017185940709,3.000836067649994,2.999845909824759,2.9972021345525586,2.9929082867746124,2.9869706961628713,2.9793984577936787,2.9702034051667145,2.959400075680647,2.9470056687054607,2.9330399964192937,2.9175254276046636,2.9004868246250513,2.881951473827814,2.8619490096432276,2.840511332671961,2.8176725220743855,2.7934687425947264,2.767938146571059,2.7411207712984926,2.7130584321274878,2.683794611692051,2.6533743456735257,2.621844105514762,2.589251678506664,2.5556460456743264,2.521077257893339,2.4855963106682366,2.4492550180045667,2.412105885803691,2.3742019852052074
0.12056444119934367,0.12502949386914888,0.1296418693313795,0.13440789742054876,0.13933427315579236,0.14442806734957092,0.14969673626755697,0.15514813022853105,0.16079050103252884,0.16663250810548,0.17268322324918656,0.17895213388671838,0.18544914469517942,0.19218457752032517,0.19916916947070895,0.20641406909289897,0.21393083053385115,0.22173140560173293,0.22982813364237675,0.23823372915508004,0.24696126707865523,0.2560241656864452,0.26543616703744216,0.27521131493965567,0.2853639303914319,0.2959085844765127,0.3068600686991929,0.31823336275695807,0.3300435997594039,0.34230602891403866,0.3550359757116601,0.36824879965637886,0.3819598495979199,0.39618441673658095,0.41093768538404557,0.42623468157612443,0.4420902196463408,0.4585188468820469,0.47553478639738206,0.49315187836978747,0.5113835197989528,0.530242602958867,0.5497414527250738,0.5698917629701751,0.5907045322310773,0.6121899988613179,0.6343575758910361,0.657215785825663,0.6807721956221746,0.7050333520887115,0.7300047179594726,0.7556906089019785,0.7820941317180509,0.8092171240031113,0.8370600955306039,0.8656221716295209,0.8949010388230381,0.9248928929952227,0.9555923903505247,0.9869926014273985,1.0190849684228103,1.051859266078654,1.0853035663741133,1.1194042072598878,1.154145765660862,1.18951103496329,1.225481007190909,1.2620348600616094,1.2991499491023901,1.336801804985362,1.3749641362315683,1.41360883741243,1.452706002960693,1.4922239466840037,1.532129227054621,1.572386678328467,1.6129594475256905,1.6538090372833443,1.694895354568659,1.7361767652188895,1.7776101542508291,1.8191509918600406,1.8607534050065846,1.9023702544608034,1.943953217159522,1.9854528737000068,2.0268188007763257,2.067999668340396,2.1089433412482097,2.149596985130491,2.1899071762065714,2.229820014740607,2.269281241820539,2.3082363591225166,2.346630751306986,2.384409810677308,2.4215190637178257,2.4579042991157336,2.493511696860043,2.5282879580014384,2.562180434648997,2.595137259773567,2.6271074763832334,2.6580411656336995,2.687889573435651,2.716605235122296,2.7441420977432296,2.7704556395556965,2.7955029862910385,2.8192430237827955,2.841636506553402,2.862646161968738,2.8822367895838967,2.9003753553193623,2.9170310801242474,2.9321755228023814,2.94578265669759,2.9578289399565705,2.9682933791111004,2.977157585745911,2.9844058260442403,2.990025063029771,2.9940049913511864,2.9963380644838895,2.997019514252284,2.9960473626053887,2.993422425608195,2.9891483096410396,2.9832313998291133,2.9756808407539994,2.96650850952861,2.9557289813459944,2.9433594876410134,2.929419867031759,2.9139325092346016,2.8969222921728632,2.8784165125241157,2.858444809974918,2.837039085474341,2.8142334137987266,2.7900639507597416,2.764568835405797,2.737788087583281,2.7097635012386365,2.680538533855167,2.650158192429437,2.618668916401218,2.586118457958169,2.5525557601416935,2.518030833183795,2.482594629506172,2.4462989178123453,2.4091961567012516,2.3713393682265456
0.11181096056779524,0.1161055414962382,0.12055115316659692,0.1251544397247907,0.1299224050986707,0.13486242246486896,0.1399822427731015,0.14529000222244182,0.1507942285835331,0.15650384626070296,0.16242817998851344,0.16857695705843287,0.17496030797307854,0.18158876542785818,0.1884732615228476,0.1956251231113884,0.20305606519617486,0.2107781822885251,0.21880393765209571,0.2271461503584907,0.23581798008902902,0.24483290962435078,0.25420472497154406,0.2639474930870464,0.2740755371626783,0.2846034094517862,0.29554586162257035,0.3069178126362126,0.3187343141583604,0.33101051352383715,0.34376161428606433,0.3570028343945909,0.37074936205622677,0.3850163093475775,0.39981866365917246,0.41517123706384307,0.4310886137144704,0.4475850953886274,0.4646746453099385,0.4823708303880807,0.500686762031238,0.5196350356963867,0.5392276693540099,0.5594760410546218,0.5803908257947971,0.6019819318901568,0.6242584370719294,0.647228524532196,0.6708994191507189,0.6952773241432599,0.7203673583774921,0.7461734946079138,0.772698498885581,0.7999438714019109,0.8279097890282326,0.8565950498141606,0.8859970197081746,0.91611158176302,0.9469330880865987,0.9784543147959863,1.0106664202279503,1.0435589066539637,1.0771195857410825,1.1113345479923082,1.1461881363910698,1.181662924464347,1.217739698967655,1.254397447382693,1.2916133504049263,1.3293627795837544,1.3676193002622785,1.406354679947033,1.445538902220458,1.4851401862904194,1.5251250122517725,1.5654581521149107,1.6061027066354758,1.6470201479580593,1.6881703680648126,1.729511732997575,1.7710011427994128,1.8125940970985508,1.854244766234564,1.8959060678035475,1.9375297484758862,1.9790664709172912,2.0204659056210974,2.0616768274375143,2.1026472165636876,2.1433243637372277,2.1836549793553366,2.223585306221947,2.2630612356065454,2.3020284262805695,2.3404324261806475,2.3782187963325696,2.4153332366557825,2.45172171325553,2.4873305867985844,2.522106741558897,2.5559977147114954,2.588951825446702,2.620918303472183,2.651847416467616,2.6816905960558657,2.7104005618555025,2.7379314431823563,2.76423889797251,2.7892802285057825,2.8130144935172186,2.835402616294481,2.8564074883712065,2.875994068440352,2.89412947612726,2.910783080279519,2.925926581449686,2.9395340882674006,2.9515821874193477,2.9620500069787807,2.9709192728507765,2.9781743581250186,2.9838023251544614,2.9877929602057187,2.990138800555207,2.990835153933889,2.989880110252737,2.987274545570629,2.983022118296178,2.977129257644807,2.969605144402077,2.9604616840737314,2.9497134725319665,2.9373777542959307,2.9234743736122915,2.9080257185287084,2.8910566581791195,2.8725944735247286,2.852668781818402,2.8313114550826683,2.808556532912636,2.7844401299347252,2.759000338270138,2.7322771253683458,2.7043122275904827,2.675149039935381,2.644832502311956,2.6134089827707987,2.580926158115026,2.547432892315753,2.512979113160927,2.4776156875677264,2.4413942959882795,2.4043673063361526,2.3665876478568877
0.10384064620941359,0.10797789293104687,0.11226934845359055,0.11672193246769315,0.12134291923621304,0.12613994602648707,0.13112102060662237,0.13629452770554462,0.14166923433601655,0.1472542938798353,0.15305924883495053,0.1590940321253288,0.16536896687605052,0.17189476455836683,0.17868252141228502,0.1857437130576936,0.19309018720909454,0.20073415441366824,0.20868817673767456,0.2169651543320652,0.22557830981465454,0.23454117041324793,0.24386754782174502,0.2535715157294059,0.26366738499215564,0.27416967642399637,0.2850930911962565,0.29645247884250725,0.30826280287747043,0.32053910404911307,0.3332964612543018,0.34654995015986034,0.3603145995825574,0.374605345693437,0.3894369841239031,0.40482412006305724,0.4207811164478924,0.4373220403600174,0.45446060775457425,0.47221012665882955,0.4905834389895545,0.5095928611496482,0.5292501235754925,0.5495663094171407,0.5705517925436387,0.5922161750754331,0.6145682246549334,0.6376158116747552,0.6613658466909756,0.6858242182557728,0.7109957314100954,0.7368840470824164,0.7634916226441653,0.7908196538760321,0.8188680186019477,0.8476352222491574,0.8771183455933564,0.907312994947327,0.938213255049875,0.9698116449090954,1.0020990768500662,1.0350648190119904,1.068696461533525,1.102979886657611,1.137899242978483,1.173436924043766,1.2095735515135992,1.2462879630666759,1.2835572052298574,1.321356531293775,1.3596594044614825,1.3984375063609162,1.4376607510346158,1.4772973045019924,1.5173136099703888,1.5576744187513911,1.5983428269183215,1.6392803177197375,1.6804468097420469,1.7218007107922426,1.763298977449215,1.8048971802093414,1.8465495741290798,1.8882091748442498,1.929827839822701,1.9713563546841786,2.0127445243986033,2.053941269151691,2.094894724645074,2.1355523465768598,2.1758610190280407,2.215767166460446,2.2552168690131342,2.2941559807662864,2.3325302506250183,2.3702854454600333,2.407367475127886,2.44372251898086,2.4792971534651898,2.5140384803966254,2.5478942554942328,2.5808130167469434,2.6127442121826885,2.643638326607096,2.6734470068776925,2.702123185280384,2.72962120057769,2.755896916302798,2.7809078358800017,2.804613214160426,2.82697416497217,2.847953764296051,2.867517148691949,2.885631608616312,2.9022666762886296,2.917394207783511,2.930988459045371,2.9430261555445147,2.9534865553165477,2.962351505151407,2.9696054897237794,2.9752356734831626,2.9792319351491945,2.9815868946859534,2.982295932657666,2.981357201897436,2.978771631450118,2.974542922780146,2.9686775382648776,2.9611846820236365,2.952076273162004,2.941366911539894,2.9290738362003994,2.915216876624138,2.899818397000818,2.8829032337357083,2.864498626433698,2.8446341426273496,2.823341596537855,2.8006549621788457,2.7766102811326046,2.751245565346213,2.724600695311495,2.6967173140072584,2.6676387169951146,2.6374097390711904,2.606076637885144,2.5736869749451246,2.540289494432642,2.5059340002546837,2.470671231761917,2.4345527385613814,2.397630754849799,2.359958073689497
0.09659518522441238,0.10058714314770922,0.10473598681821839,0.10904887501750475,0.113533316052574,0.11819717525312101,0.12304868153969617,0.12809643296729842,0.13334940114841393,0.13881693445951132,0.14450875993550594,0.15043498375772502,0.1566060902424749,0.16303293923942364,0.16972676185170366,0.17669915439289344,0.18396207049988267,0.19152781132504365,0.19940901373614162,0.20761863645800002,0.21616994409609447,0.22507648898896826,0.23435209084362885,0.2440108141158867,0.2540669431059053,0.2645349547480307,0.2754294890832316,0.2867653174121715,0.29855730813702286,0.31082039031059405,0.32356951492211017,0.33681961396006205,0.3505855573038257,0.3648821075072604,0.37972387254912554,0.39512525663689124,0.41110040916228885,0.4276631719187069,0.44482702470223573,0.4626050294297137,0.4810097729185284,0.5000533084840466,0.5197470965213979,0.5401019442488008,0.5611279447996851,0.582834415860431,0.6052298380595907,0.6283217933228932,0.6521169034161228,0.6766207689050489,0.701837908767897,0.7277717009013629,0.7544243237658176,0.7817966994190911,0.8098884381910028,0.83869778525261,0.8682215693348997,0.8984551538513654,0.9293923906775039,0.9610255768377732,0.9933454143468998,1.0263409734476336,1.0599996594810717,1.0943071836185536,1.1292475376758129,1.1648029732206158,1.2009539851744702,1.2376793000972524,1.2749558693306986,1.3127588671627526,1.3510616941597482,1.3898359857973688,1.429051626504333,1.4686767692148615,1.5086778605072078,1.5490196713860023,1.5896653337458824,1.6305763825329862,1.6717128035994093,1.713033087223781,1.7544942872487872,1.7960520857638438,1.8376608632383085,1.8792737739877103,1.9208428268325948,1.9623189707867992,2.0036521855894436,2.0447915768727145,2.085685475735793,2.126281542474071,2.166526874192318,2.2063681160107365,2.24575157555402,2.2846233403956924,2.3229293981133217,2.360615758594644,2.3976285782204476,2.4339142855372207,2.4694197080212112,2.504092199525734,2.537879767995388,2.570731203024314,2.602596202830896,2.6334255002182965,2.663170987089096,2.6917858370829997,2.7192246259091553,2.7454434489490964,2.770400035712678,2.794053860737604,2.81636625053322,2.837300486181161,2.856821901219149,2.874897974449628,2.891498417332069,2.9065952556364465,2.920162905055633,2.9321782404961114,2.9426206587894126,2.9514721345909165,2.9587172692580017,2.9643433325259108,2.9683402968269013,2.9707008641262647,2.971420485177366,2.970497371126954,2.967932497431355,2.9637296000737896,2.957895164102653,2.950438404540149,2.9413712397399308,2.9307082573013075,2.9184666726759105,2.904666280630426,2.8893293997558422,2.8724808102396358,2.8541476851421796,2.8343595154423733,2.813148029139893,2.790547104722503,2.766592679326376,2.74132265193535,2.7147767819813295,2.686996583722649,2.658025216789992,2.6279073733004643,2.596689161949503,2.564417989497566,2.53114244007381,2.496912152722429,2.461777697618764,2.425790451381942,2.3890024719085123,2.351466373147471
0.0900182104749503,0.09387587385954546,0.09789262706755197,0.10207583377616344,0.10643320227580613,0.1109727921244626,0.11570301988015334,0.12063266382045869,0.12577086755749783,0.13112714245677357,0.13671136876876236,0.14253379538309216,0.14860503811663253,0.15493607644882243,0.16153824862010813,0.16842324501245287,0.17560309973452856,0.18309018033840013,0.1908971755992795,0.1990370812952435,0.20752318392968214,0.21636904234565624,0.22558846718828895,0.23519549817877955,0.24520437917158489,0.25562953097475555,0.2664855219223039,0.27778703619680223,0.289548839910119,0.30178574496028393,0.3145125706928705,0.32774410340598475,0.3414950537488772,0.3557800120753429,0.3706134018243705,0.3860094310119028,0.4019820419290366,0.4185448591534517,0.43571113599228883,0.45349369948599094,0.4719048941137971,0.49095652435249637,0.5106597962507229,0.5310252581913857,0.5520627410247702,0.5737812977643176,0.5961891430460738,0.619293592561182,0.6431010026785904,0.6676167104822311,0.692844974453303,0.7187889160338556,0.7454504623126296,0.7728302900779584,0.8009277714854711,0.8297409215902947,0.8592663479944113,0.8894992028597316,0.9204331375362764,0.9520602600525986,0.9843710957121767,1.0173545510349933,1.0509978812778005,1.0852866617597525,1.120204763212047,1.1557343313610624,1.1918557709441324,1.2285477343456543,1.2657871150286257,1.3035490459230608,1.3418069029179835,1.3805323135879801,1.4196951712685533,1.4592636545769098,1.4992042524563003,1.5394817948027446,1.5800594887129433,1.6208989603715092,1.6619603025743725,1.7032021278635079,1.7445816272259418,1.7860546342875876,1.827575694909775,1.8690981420735788,1.9105741759143067,1.951954948745817,1.9931906548919238,2.034230625120014,2.0750234254503326,2.115516960093255,2.1556585782464275,2.195395184463911,2.234673352290732,2.2734394408383394,2.3116397139597953,2.3492204616679597,2.3861281234256806,2.4223094129241374,2.457711443954048,2.492281856964606,2.525968945896727,2.5587217848706154,2.5904903543028053,2.6212256660247535,2.6508798869738186,2.679406461028055,2.706760228558713,2.7328975432786917,2.757776385971426,2.781356474692774,2.803599371048436,2.824468582161221,2.8439296579560103,2.861950283405575,2.878500365397362,2.8935521138999145,2.907080117127692,2.919061410424557,2.929475538609069,2.938304611548798,2.9455333527561023,2.951149140824013,2.9551420435479683,2.95750484460699,2.958233062706334,2.9573249631126064,2.95478156154157,2.9506066203883563,2.94480663731928,2.9373908262738704,2.928371090954884,2.9177619909128523,2.9055807003599443,2.8918469598755188,2.876583021192515,2.8598135852796633,2.8415657339593197,2.821868855324314,2.8007545632395736,2.7782566112352063,2.754410801117216,2.729254886639919,2.7028284726003697,2.6751729097296892,2.6463311857689056,2.616347813127903,2.585268713535174,2.5531411000932565,2.520013357160068,2.485934918479766,2.4509561439882437,2.4151281957180233,2.378502913225053,2.3411326889558697
0.08405556035872461,0.08778891814873666,0.09168312454657641,0.09574571612361471,0.0999845692601733,0.10440790604183396,0.10902429924151108,0.11384267630017238,0.11887232221865396,0.12412288127300303,0.12960435746622767,0.13532711363024308,0.14130186909320724,0.14753969582933696,0.1540520130107127,0.16085057988351698,0.16794748689462174,0.17535514499844063,0.18308627307850522,0.19115388342330014,0.19957126520149987,0.20835196588788568,0.21750977059786777,0.2270586792956959,0.23701288184907515,0.24738673091101343,0.2581947126182816,0.26945141510484155,0.2811714948379598,0.29336964079446143,0.30606053650462767,0.3192588200015995,0.33297904172474,0.3472356204362292,0.3620427972211406,0.3774145876523484,0.3933647322127839,0.4099066450787517,0.4270533613791844,0.44481748305677743,0.4632111234678979,0.4822458508688917,0.5019326309469095,0.5222817685635444,0.5433028488893887,0.5650046781169988,0.5873952239486578,0.6104815560636825,0.6342697867777777,0.65876501211405,0.6839712535116914,0.7098914004039658,0.7365271539019682,0.7638789718245872,0.7919460153181445,0.8207260973113133,0.850215633052012,0.8804095929730879,0.911301458132614,0.9428831784725923,0.9751451341366774,1.0080761000832672,1.0416632142248374,1.075891949317848,1.1107460888197669,1.1462077069208896,1.1822571529485528,1.2188730403301824,1.2560322402893003,1.293709880435229,1.331879348392791,1.3705123006028284,1.409578676407911,1.4490467175202613,1.4888829929506473,1.5290524294579764,1.569518347559517,1.6102425031212397,1.6511851345267163,1.6923050154014891,1.733559512847866,1.7749046511228288,1.8162951806692589,1.8576846523880648,1.899025497016188,1.9402691094529196,1.9813659378546489,2.0222655772961318,2.062916867774801,2.103267996313561,2.1432666028971306,2.1828598899573417,2.2219947351040212,2.2606178067802998,2.298675682504457,2.3361149693448717,2.3728824262603974,2.4089250879255593,2.4441903896485404,2.478626292979997,2.5121814116024326,2.5448051370832028,2.57644776406932,2.607060614499034,2.6365961604038786,2.665008144875317,2.69225170077253,2.7182834667521,2.7430617002064674,2.766546386706011,2.7886993455494364,2.8094843310387847,2.828867129108801,2.8468156489555514,2.863300009325985,2.8782926191485485,2.891768252204894,2.903704115564092,2.9140799115234475,2.922877892823954,2.9300829109334825,2.9356824572168394,2.939666696838777,2.942028495273717,2.9427634373242397,2.941869838579188,2.9393487492713057,2.9352039505236927,2.929441943003654,2.922071928031821,2.913105781223419,2.9025580187671967,2.8904457564756494,2.876788661767603,2.861608898770905,2.84493106675867,2.8267821321572337,2.807191354387485,2.7861902058234658,2.76381228617302,2.7400932316046465,2.715070618962544,2.6887838654280234,2.6612741239999624,2.632584175179688,2.602758315256604,2.5718422415999305,2.5398829353691297,2.5069285420608978,2.4730282503139893,2.4382321693947,2.40259120578542,2.3661569392965096,2.3289814991177074
0.0786554860354979,0.08227357153613427,0.08605384594547168,0.09000398884834482,0.09413201491740746,0.09844627912946141,0.10295548107553382,0.1076686682812561,0.11259523845367936,0.11774494057064827,0.12312787472927633,0.12875449067092815,0.13463558490144653,0.14078229632716574,0.14720610032955272,0.15391880120411353,0.16093252289251145,0.168259697940661,0.17591305461990087,0.18390560215320292,0.1922506139937432,0.2009616091090381,0.21005233123022732,0.21953672603295687,0.2294289162236547,0.23974317451279806,0.2504938944650115,0.2616955592244934,0.2733627081233107,0.28550990118951575,0.2981516815817674,0.3113025359871803,0.32497685302940105,0.33918887974443074,0.3539526761923837,0.36928206828419424,0.3851905989131739,0.4016914774922582,0.4187975280087047,0.43652113571884327,0.4548741926162255,0.47386804181706094,0.4935134210171623,0.513820405184646,0.5347983486623334,0.5564558268630716,0.5788005777500307,0.6018394433023296,0.6255783111740759,0.6500220567620123,0.6751744859033725,0.7010382784312241,0.7276149328194679,0.7549047121537157,0.7829065916674158,0.8116182080848516,0.8410358110138759,0.8711542166315293,0.9019667639048731,0.9334652735875358,0.9656400102295025,0.998479647433616,1.0319712365870481,1.066100179289654,1.100850203693624,1.1362033449602098,1.1721399300294963,1.2086385668882877,1.245676138509131,1.2832278016203837,1.3212669904530403,1.3597654255948532,1.3986931280660608,1.4380184387139618,1.4777080430055574,1.5177270012787,1.5580387844926238,1.5986053154985205,1.6393870158300088,1.680342857992013,1.721430423204821,1.762605964538016,1.8038244753466661,1.845039762899711,1.8862045270680357,1.9272704439173105,1.9681882540285127,2.008907855347115,2.0493784003404834,2.0895483972220306,2.1293658149803836,2.1687781919322187,2.207732747498725,2.246176496887888,2.2840563683480894,2.321319322643029,2.357912474383674,2.3937832148400764,2.428879335844418,2.4631491543866915,2.4965416374961054,2.5290065269945545,2.560494463703568,2.5909571106828855,2.6203472750774246,2.648619028149779,2.6757278230777097,2.7016306101001595,2.726285948601385,2.7496541157306056,2.7716972111643075,2.7923792576298148,2.811666296822039,2.8295264803603195,2.8459301554488987,2.8608499449228746,2.874260821381201,2.886140175129532,2.896467875678215,2.9052263265645175,2.912400513293025,2.9179780442140486,2.921949184186623,2.9243068809001747,2.925046783757078,2.924167255246894,2.9216693747720313,2.9175569349136925,2.9118364301561606,2.904517038116545,2.895610593355991,2.885131553876803,2.8730969604378904,2.859526388848266,2.844441895424799,2.827867955826058,2.8098313974985945,2.790361325995439,2.7694890454486925,2.747247973498865,2.723673551002887,2.6988031468604854,2.672675958314708,2.6453329070968117,2.616816531798397,2.5871708768645294,2.5564413786106415,2.5246747486731405,2.4919188553089837,2.4582226029628376,2.4236358105219993,2.3882090886788907,2.351993716818777,2.3150415198463383
0.07376880955728685,0.07727975300791518,0.08095383313859456,0.08479884470795004,0.08882291290159866,0.09303449793998494,0.0974423987883432,0.10205575588870298,0.10688405283345509,0.11193711689998151,0.11722511836625182,0.12275856852810725,0.12854831634022176,0.13460554360444615,0.14094175863143524,0.1475687883041249,0.15449876847478822,0.1617441326310486,0.1693175987703825,0.17723215442729368,0.18550103980249016,0.19413772894903727,0.20315590897659042,0.21256945724142057,0.22239241649701502,0.23263896798755976,0.2433234024745644,0.2544600891952546,0.2660634427601029,0.27814788800598567,0.29072782283088305,0.30381757904578577,0.3174313812894566,0.33158330406192665,0.34628722694300346,0.36155678807261693,0.37740533598046566,0.3938458798631164,0.41089103841740227,0.4285529873495887,0.44684340569032543,0.46577342105576036,0.4853535540053683,0.5055936616569242,0.5265028807286345,0.5480895701876067,0.570361253692604,0.5933245620272577,0.6169851757276256,0.6413477681150558,0.6664159489517552,0.6921922089421456,0.7186778653080511,0.745873008669864,0.7737764514690904,0.8023856781700296,0.8316967974797114,0.86170449682564,0.8924019993302407,0.9237810235192435,0.9558317459984568,0.9885427673295311,1.021901081330299,1.0558920480191747,1.0904993704158092,1.1257050754018094,1.1614894988357671,1.1978312751061782,1.23470733129406,1.2720928861041922,1.3099614537099855,1.3482848526420463,1.3870332198345503,1.4261750299267064,1.4656771198988248,1.5055047191039699,1.5456214847368464,1.5859895427616035,1.626569534299624,1.667320667457285,1.708200774552119,1.7491663746739365,1.7901727414953523,1.8311739762238979,1.872123085565611,1.9129720645477704,1.953671984026388,1.9941730826823287,2.0344248632885593,2.0743761930101936,2.1139754074787693,2.153170418362728,2.191908824137397,2.2301380237401203,2.267805332779512,2.3048581019523557,2.3412438373074274,2.3769103219826353,2.4118057390304144,2.445878794936357,2.479078843427692,2.5113560091614904,2.542661310877459,2.5729467835968967,2.6021655994479054,2.630272186697302,2.657222346571821,2.6829733674552827,2.707484136054235,2.730715245132386,2.752629097423641,2.773190005344998,2.7923642861436355,2.8101203521274103,2.8264287956444623,2.841262468495728,2.85459655548374,2.866408641822137,2.876678774152628,2.8853895149397415,2.8925259900383757,2.8980759292548384,2.902029699748633,2.9043803321495556,2.9051235392925747,2.9042577275013706,2.901784000380151,2.8977061551022776,2.8920306712132358,2.884766691994372,2.875925998462474,2.8655229761085863,2.853574574507192,2.8401002599540472,2.8251219613172784,2.8086640093118054,2.7907530694315192,2.771418068796942,2.750690117198044,2.7286024226325494,2.7051902016592466,2.680490584903429,2.654542518067642,2.6273866588152393,2.5990652699068377,2.5696221089806013,2.5391023153762284,2.507552294409696,2.4750195995110396,2.4415528126408756,2.4072014234028827,2.3720157072691235,2.3360466033329645,2.2993455920003614
0.06934903666428659,0.07276011983313088,0.07633491995946881,0.08008132109245278,0.08400753308683585,0.08812209566759802,0.09243388160548072,0.09695209892643428,0.10168629207760001,0.10664634197243586,0.11184246483797089,0.11728520978795627,0.12298545504688593,0.128954402751502,0.1352035722584924,0.14174479188964148,0.14859018904871946,0.15575217864789248,0.1632434497854201,0.1710769506208693,0.17926587139902156,0.18782362557907611,0.19676382903165435,0.2061002772724786,0.2158469207084186,0.22601783787886418,0.23662720668307025,0.247689273592214,0.2592183208533755,0.2712286317014917,0.28373445360448746,0.2967499595762574,0.3102892076018847,0.32436609822944723,0.338994330392897,0.35418735554079706,0.36995833015608887,0.3863200667625265,0.40328498352388203,0.4208650525524489,0.4390717470537215,0.45791598744432105,0.4774080865902457,0.49755769432227054,0.5183737413947725,0.539864383063335,0.5620369424651501,0.5848978539944225,0.608452606872625,0.6327056891205299,0.6576605321453523,0.6833194561620657,0.7096836166729225,0.7367529522333913,0.764526133736043,0.7930005154463541,0.8221720880258935,0.8520354337788919,0.8825836843576924,0.9138084811610688,0.9456999386567936,0.9782466108561615,1.011435461163359,1.0452518358166656,1.079679441131416,1.1147003247464635,1.15029486106657,1.1864417410827222,1.223117966740815,1.2602988500165393,1.2979580168406155,1.336067416003825,1.3745973331556056,1.4135164099933688,1.452791668722195,1.4923885418462621,1.532270907334281,1.5724011291814692,1.6127401033702302,1.6532473092108317,1.693880866022037,1.7345975950900092,1.7753530868218577,1.8161017729881692,1.856797003926732,1.8973911305576179,1.9378355910379166,1.978081001862811,2.0180772531984563,2.0577736082114417,2.097118806139489,2.1360611688286855,2.174548710443993,2.2125292500421803,2.2499505266797497,2.2867603167130226,2.322906552933353,2.3583374451676,2.393001601962532,2.426848152961913,2.459826871576621,2.4918882975414314,2.522983858947,2.553065993332314,2.582088267421273,2.6100054950874094,2.6367738531327762,2.6623509944710344,2.6866961583105264,2.7097702769407674,2.731536078735208,2.751958186994375,2.7710032142664796,2.7886398517972597,2.804838953777183,2.8195736160720273,2.8328192491422732,2.844553644877601,2.854757037094883,2.863412155471486,2.8705042727101353,2.876021244757082,2.8799535439216717,2.8822942847724606,2.8830392427127745,2.882186865166745,2.879738275335385,2.8756972685109936,2.870070300966912,2.862866471468369,2.8540974954785914,2.843777672162423,2.8319238443172936,2.818555351388306,2.80369397575033,2.7873638824653044,2.7695915527471135,2.7504057113895493,2.729837248434663,2.707919135379337,2.6846863362369318,2.660175713788399,2.6344259313731504,2.6074773505842312,2.5793719252448497,2.5501530920540785,2.5198656582984444,2.4885556870332515,2.456270380142683,2.4230579596911586,2.3889675479798957,2.3540490467223574,2.3183530157501053,2.281930551656693
0.0653524282209029,0.06867014022260334,0.07215180603650988,0.07580537498740761,0.0796391176048555,0.08366162920403859,0.08788183258672114,0.09230897978814433,0.09695265279534646,0.10182276316236902,0.10692955044817079,0.1122835794038182,0.11789573583667179,0.12377722108085902,0.12993954500532637,0.1363945174932108,0.14315423832917054,0.15023108543467287,0.15763770139506333,0.1653869782265332,0.17349204033586335,0.18196622563105164,0.19082306474662059,0.20007625835355036,0.20973965253037052,0.21982721217896906,0.23035299247611984,0.241331108359571,0.2527757020557527,0.26470090866474444,0.2771208198270354,0.2900494455058263,0.30350067392807556,0.31748822973720736,0.3320256304202875,0.3471261410825318,0.3628027276521705,0.3790680086089335,0.39593420533967905,0.4134130912349123,0.43151593965010715,0.450253470865766,0.4696357981900017,0.4896723733570397,0.5103719313843597,0.531742435060171,0.553791019241497,0.5765239351512503,0.5999464948702887,0.6240630162274698,0.6488767682971339,0.674389917719161,0.7006034760617551,0.7275172484513247,0.7551297836972022,0.7834383261414715,0.812438769465751,0.8421256126874307,0.8724919185774791,0.9035292747305741,0.9352277575158487,0.9675758991330397,1.000560657994191,1.0341673926453512,1.0683798394358337,1.103180094134651,1.1385485976846175,1.1744641262744226,1.2109037858976512,1.2478430115553503,1.2852555712452893,1.3231135748666267,1.361387488153227,1.40004615173254,1.439056805389675,1.4783851175982632,1.5179952203608484,1.5578497493820598,1.5979098895776784,1.6381354259020797,1.678484799455417,1.7189151688104942,1.759382476477559,1.7998415204033955,1.8402460303791968,1.8805487492098263,1.9207015184753882,1.9606553686945931,2.000360613678363,2.0397669488415464,2.0788235532206745,2.1174791949264216,2.155682339741027,2.1933812625534146,2.2305241613082902,2.2670592731301435,2.302934992268972,2.338099989501732,2.3725033326121348,2.4060946075614753,2.4388240399548082,2.4706426164000574,2.501502205352538,2.5313556770340453,2.5601570220140646,2.587861468040861,2.614425594712243,2.639807445579642,2.6639666372848425,2.686864465336191,2.7084640061404563,2.72873021491759,2.747630019138466,2.765132407140231,2.7812085115900302,2.795831687485633,2.808977584400676,2.8206242127028927,2.8307520034956273,2.8393438620560865,2.8463852145680395,2.8518640479719153,2.855770942781374,2.8580990987422483,2.858844353237258,2.8580051923677883,2.8555827546723354,2.8515808274696743,2.8460058358433393,2.838866824312444,2.830175431262106,2.819945856234566,2.808194820209468,2.79494151902847,2.7802075701452926,2.7640169529073852,2.74639594259941,2.72737303850165,2.7069788862381428,2.6852461947096318,2.6622096479253714,2.63790581206518,2.6123730381189345,2.5856513604648477,2.557782391760292,2.5288092145295833,2.498776269842033,2.467729243480602,2.4357149500067097,2.4027812151301022,2.3689767567942326,2.3343510653872763,2.298954283486819,2.262837085542394
0.06173803438730098,0.0649681280030268,0.06836209193993657,0.0719279185618326,0.0756739168401534,0.07960871550499762,0.0837412653258569,0.08808084045051738,0.09263703873024037,0.09741978095931675,0.10243930895743178,0.10770618242399035,0.11323127449465532,0.11902576593185599,0.12510113788294497,0.1314691631420312,0.13814189585430256,0.1451316596048812,0.1524510338379373,0.16011283855592243,0.1681301172533741,0.17651611804478848,0.18528427295155442,0.1944481753188844,0.20402155534005267,0.2140182536720548,0.22445219313401496,0.23533734848727658,0.24668771430408762,0.2585172709401344,0.27083994863482874,0.2836695897722238,0.297019909344653,0.3109044536706583,0.325336557428433,0.34032929907583376,0.35589545473795886,0.37204745065331174,0.3887973142796324,0.40615662417050635,0.42413645874385025,0.44274734407322314,0.4619992008426159,0.48190129061483833,0.5024621615728225,0.5236895939020351,0.5455905449906652,0.5681710946323033,0.5914363904233638,0.6153905935544963,0.6400368252016188,0.6653771137279173,0.6914123429131726,0.7181422014310209,0.7455651337981771,0.7736782930222349,0.8024774951763173,0.8319571761295959,0.8621103506624282,0.8929285741936183,0.9244019073449883,0.9565188835650965,0.9892664800294626,1.0226300920291274,1.0565935110526903,1.091138906759209,1.1262468130304333,1.1618961182808678,1.1980640601930548,1.2347262250333193,1.2718565516900058,1.3094273405620223,1.347409267410306,1.3857714022687118,1.4244812334938097,1.463504697015275,1.5028062108299476,1.5423487147634027,1.5820937155029724,1.622001336885759,1.6620303754043246,1.7021383608715266,1.7422816221645028,1.782415357946167,1.822493712240891,1.862469854719385,1.9022960655263026,1.9419238244628485,1.9813039043157885,2.0203864681038923,2.0591211699930194,2.0974572596119625,2.135343689482884,2.1727292252627777,2.209562558476044,2.2457924214030176,2.2813677037752407,2.316237570915546,2.3503515829496786,2.383659814706277,2.41611297591371,2.4476625312955207,2.4782608201611365,2.5078611750851345,2.536418039266733,2.5638870821613198,2.5902253129778017,2.615391191639311,2.6393447368104104,2.662047630601331,2.6834633195689492,2.703557111645193,2.7222962686362187,2.7396500939500896,2.7555900152266326,2.7700896615607262,2.783124935029272,2.794674076252513,2.8047177237420984,2.8132389668112006,2.8202233918460218,2.825659121763009,2.8295368485019816,2.831849858431952,2.832594050573634,2.831767947570308,2.829372699366728,2.8254120795839546,2.819892474606291,2.812822865424655,2.804214802308713,2.794082372407682,2.7824421604068434,2.7693132023932474,2.7547169331098464,2.7386771268021004,2.7212198318849383,2.7023732996806564,2.682167907499832,2.660636076357477,2.6378121836353947,2.6137324710189525,2.588434948052131,2.561959291668744,2.534346742070031,2.505639995329415,2.4758830931140188,2.4451213099195077,2.4134010382200164,2.380769671938251,2.3472754886423766,2.3129675308760143,2.277895487025597,2.2421095721255098
0.05846769566042362,0.06161524351947837,0.06492627993045388,0.0684088197469071,0.07207118982168219,0.07592203177692253,0.0799703039138152,0.08422528219294755,0.08869656021581712,0.09339404813802243,0.09832797044498678,0.10350886252175226,0.10894756594943761,0.1146552224623987,0.1206432665019761,0.1269234163049742,0.13350766346769785,0.14040826092948291,0.14763770932320874,0.15520874164426965,0.16313430619391633,0.17142754775775315,0.18010178698549437,0.1891704979438341,0.19864728382046143,0.20854585076384863,0.2188799798504401,0.22966349717825998,0.24091024209370937,0.25263403356644,0.2648486347356155,0.2775677156596143,0.2908048143102173,0.30457329586157506,0.3188863103336813,0.33375674865969734,0.3491971972561984,0.36521989118523607,0.3818366660069747,0.39905890843150366,0.4168975058882374,0.4353627951410061,0.4544645100864861,0.4742117288829449,0.49461282056536054,0.5156753913117202,0.5374062305337003,0.5598112569728817,0.5828954649911352,0.6066628712507562,0.6311164619862775,0.6562581410755903,0.6820886791230182,0.7086076637712517,0.7358134514625072,0.7637031208719104,0.7922724282378276,0.8215157648146947,0.8514261166737239,0.8819950270757314,0.9132125616381387,0.9450672765149909,0.9775461898045046,1.0106347563932971,1.044316846439936,1.0785747276928763,1.1133890518291398,1.1487388449903158,1.1846015026815777,1.2209527891874792,1.2577668416453134,1.295016178902835,1.332671715272188,1.3707027792760078,1.4090771374649034,1.4477610233679599,1.4867191716195656,1.5259148572868582,1.5653099404024486,1.6048649156869317,1.6445389674250643,1.6842900294385463,1.724074850077084,1.7638490621280285,1.803567257523411,1.84318306670176,1.8826492424608103,1.9219177481161636,1.9609398497603023,1.9996662123961382,2.038046999699662,2.0760319771473177,2.1135706182255976,2.150612213423084,2.18710598168897,2.2230011840269155,2.2582472388791826,2.292793838943332,2.326591069052493,2.3595895247403633,2.39174043110383,2.4229957615693274,2.4533083561640185,2.482632038889453,2.5109217337937415,2.5381335793383557,2.5642250406575857,2.5891550193123605,2.612883960145627,2.635373954853788,2.656588841897728,2.6764943023877974,2.695057951589617,2.712249425711786,2.7280404636523317,2.742404983398114,2.7553191527901832,2.766761454388284,2.7767127441891932,2.785156303976241,2.792077887101141,2.797465757524,2.8013107219629507,2.803606155031197,2.804348017266184,2.803534865982994,2.8011678589118154,2.7972507506072453,2.7917898816451987,2.784794160651077,2.7762750392305664,2.766246479901757,2.754724917154112,2.7417292117860574,2.72728059869841,2.7114026283454677,2.694121102069182,2.675464001564324,2.6554614127438323,2.634145444293507,2.611550141223756,2.587711393743213,2.5626668417945093,2.5364557756064405,2.5091190326289023,2.48069889122753,2.451238961523629,2.420784073771967,2.389380164674089,2.3570741620281623,2.323913868117853,2.289947842242463,2.255225282788515,2.219795909239183
0.055506014883882966,0.05857546494439854,0.06180774456457751,0.06521087213511602,0.06879317341347363,0.07256328395691496,0.0765301507057241,0.08070303264971246,0.08509150051081729,0.0897054353745708,0.0945550262035339,0.09965076616644326,0.10500344771783798,0.11062415636432019,0.11652426305538213,0.12271541513890882,0.12920952582405099,0.13601876209716418,0.14315553103993983,0.15063246450270792,0.1584624020901793,0.16665837242161485,0.17523357263255546,0.18420134609082592,0.19357515830551328,0.20336857101402633,0.21359521443914337,0.22426875771513743,0.23540287748961683,0.24701122471561732,0.25910738965669466,0.27170486513629216,0.2848170080714319,0.298456999339814,0.3126378020386335,0.3273721182028267,0.3426723440599898,0.3585505239088356,0.3750183027177261,0.3920868775494848,0.4097669479283282,0.4280686652742843,0.44700158153985853,0.466574597192901,0.48679590869857475,0.5076729556619671,0.529212367801175,0.5514199119285641,0.5743004391253129,0.5978578323012359,0.6220949543381933,0.6470135970210701,0.6726144309653094,0.6988969567542589,0.7258594575030659,0.7534989530685271,0.7818111561260838,0.8107904303360425,0.8404297508210183,0.8707206671755586,0.9016532692268332,0.9332161557621836,0.9653964064351519,0.9981795570563803,1.0315495784694488,1.0654888592043068,1.0999781920924383,1.1349967650183244,1.1705221559710859,1.20653033254848,1.2429956560526643,1.2798908903033994,1.317187215279629,1.3548542456847528,1.3928600545144036,1.4311712016881992,1.4697527677888822,1.508568392933501,1.5475803207818941,1.5867494476678607,1.6260353768180238,1.665396477602689,1.7047899497420143,1.7441718923696508,1.7834973778347856,1.8227205301023275,1.8617946075899134,1.9006720902595937,1.9393047707616082,1.9776438494076394,2.0156400327315107,2.0532436353765413,2.090404685030791,2.1270730301143423,2.163198449906683,2.198730766787233,2.233619960248248,2.267816282326754,2.3012703740910063,2.333933382807164,2.3657570794036276,2.3966939758438,2.4266974420129483,2.45572182172147,2.4837225474251663,2.510656253263217,2.536480886016363,2.56115581359143,2.5846419306437154,2.606901760955937,2.6278995562013674,2.647601390729446,2.665975252024514,2.682991126502331,2.6986210803246182,2.7128393349290274,2.7256223369904964,2.736948822549915,2.746799875067268,2.75515897717884,2.7620120559615486,2.7673475215319714,2.7711562988328997,2.7734318524863273,2.774170204618383,2.7733699455888483,2.7710322375853007,2.767160811069588,2.761761954091993,2.7548444945160915,2.7464197752246857,2.736501622404235,2.7251063070317865,2.712252499714343,2.6979612190557956,2.6822557737509105,2.665161698629191,2.6467066848937084,2.626920504821043,2.6058349312082494,2.583483651871122,2.5599021795149457,2.5351277573142683,2.5091992605519953,2.482157094680176,2.4540430901752464,2.4249003945691174,2.3947733620443694,2.3637074409868934,2.331749059892604,2.298945512026363,2.2653448392309663,2.230995715282057,2.1959473291810605
0.05282030422824932,0.05581553407142002,0.05897267731003812,0.06229973842639436,0.06580502460176238,0.06949714785208827,0.0733850263247048,0.07747788469127703,0.08178525357187338,0.08631696792503965,0.09108316433905383,0.09609427716016966,0.10136103339463637,0.10689444632261932,0.1127058077638611,0.11880667893702238,0.12520887985713958,0.13192447721853584,0.13896577071383787,0.1463452777434825,0.15407571647424775,0.16216998720991613,0.17064115204217054,0.17950241275523515,0.18876708696358901,0.1984485824683054,0.2085603698241815,0.2191159531168156,0.23012883895613528,0.24161250370058196,0.25358035893416264,0.2660457152269022,0.2790217442177973,0.2925214390682044,0.3065575733426151,0.32114265838297706,0.33628889925205024,0.35200814933072205,0.36831186366369173,0.38521105115742194,0.40271622574372096,0.4208373566316865,0.4395838177799827,0.4589643367304777,0.4789869429530782,0.49965891586013267,0.5209867326569503,0.5429760162027651,0.5656314830638073,0.5889568919469619,0.6129549927087622,0.637627476140106,0.6629749247320634,0.6889967646324202,0.7156912190060833,0.7430552630151827,0.7710845806365165,0.7997735235349518,0.8291150722113658,0.8591007996427766,0.8897208376303306,0.92096384606785,0.9528169853395881,0.9852658920507706,1.0182946582883239,1.0518858146019516,1.08602031688739,1.1206775373442859,1.155835259670664,1.191469678644456,1.2275554042300243,1.2640654703340977,1.3009713483210483,1.338242965382065,1.3758487278364937,1.413755549426577,1.451928884648987,1.4903327671480626,1.528929853176533,1.567681470109901,1.60654766998053,1.645487287977057,1.6844580058340184,1.723416420015673,1.762318114577045,1.8011177385642578,1.8397690877954078,1.8782251908426504,1.9164383990159468,1.9543604801291052,1.9919427158095633,2.029136002094755,2.0658909530401623,2.102158007047197,2.13788753560315,2.1730299541105706,2.2075358344697276,2.241356019065395,2.2744417357980606,2.306744713789992,2.3382172993883947,2.3688125720812296,2.3984844599362183,2.427187854170187,2.454878722454187,2.4815142205598684,2.50705280195437,2.531454324954508,2.554680157056371,2.576693276063466,2.597458367645378,2.6169419189694025,2.635112308059807,2.6519398885532084,2.66739706953393,2.6814583901501425,2.6941005887299183,2.7053026661360557,2.7150459431195038,2.723314111453362,2.7300932786526504,2.7353720061092175,2.739141340496163,2.741394838321886,2.742128583540187,2.741341198149641,2.7390338457425716,2.73521022799127,2.7298765740864703,2.7230416231703956,2.714716599833753,2.7049151827728273,2.693653466729044,2.6809499178590586,2.666825322708314,2.6513027309850985,2.634407392355215,2.616166687499376,2.5966100536962746,2.575768905213815,2.5536765488091553,2.5303680946549285,2.5058803630242097,2.4802517870803684,2.4535223121299423,2.4257332917068872,2.396927380865151,2.367148427063265,2.3364413590297195,2.304852074001104,2.272427323726525,2.239214599631537,2.205262017532819,2.1706182022911777
0.05038051099188006,0.053304880518220354,0.05639000916775398,0.05964387148820958,0.06307474001399582,0.06669118714007316,0.07050208616810844,0.0745166114620669,0.07874423765009467,0.083194737809527,0.08787818057214762,0.09280492608743002,0.09798562078243714,0.10343119085834583,0.10915283446521833,0.11516201249867299,0.12147043796452073,0.12809006386024,0.135033069525374,0.14231184541654845,0.149938976266833,0.15792722259360623,0.16628950052392955,0.17503885991169402,0.1841884607264557,0.19375154769993022,0.2037414232225529,0.2141714184893195,0.22505486290128385,0.23640505173659604,0.2482352121127812,0.26055846727007986,0.27338779921404627,0.28673600976423314,0.3006156800646173,0.3150391286204324,0.3300183679352138,0.3455650598311123,0.3616904695448346,0.3784054187008831,0.3957202372730661,0.41364471465445224,0.43218804996503957,0.4513588017353137,0.47116483711255824,0.49161328074518473,0.5127104635084238,0.5344618712424006,0.5568720936808704,0.579944773755633,0.6036825574678638,0.6280870445231881,0.6531587399322876,0.6788970067830852,0.7053000203940426,0.7323647240608269,0.7600867866104523,0.7884605619780127,0.8174790510211608,0.8471338657866248,0.8774151964411784,0.9083117810766052,0.9398108785942832,0.9718982448700727,1.0045581123941587,1.0377731735734392,1.0715245678758747,1.1057918729870304,1.1405531001387585,1.1757846937586862,1.211461535576847,1.247556953312524,1.284042734050105,1.3208891423976308,1.3580649435056857,1.3955374310074977,1.4332724599235371,1.4712344845556937,1.5093866013772532,1.5476905969055483,1.5861070005243152,1.6245951422026321,1.6631132150368562,1.7016183425213314,1.7400666504329712,1.778413343194086,1.8166127845573121,1.8546185824361288,1.8923836776844827,1.9298604366094716,1.9670007469820394,2.0037561172922858,2.040077778978405,2.0759167913415393,2.111224148843067,2.1459508904661377,2.180048210809709,2.2134675725710227,2.246160820061458,2.2780802933910995,2.30917894294922,2.3394104438012997,2.368729309618144,2.3970910057493384,2.4244520610515257,2.450770178082016,2.476004341269964,2.5001149226808073,2.5230637849948727,2.544814381328007,2.5653318515307437,2.584583114612887,2.602536956952401,2.6191641159611403,2.634437358895125,2.6483315565137726,2.6608237513105952,2.6718932200573224,2.6815215304241304,2.6896925914605077,2.696392697744214,2.701610567029662,2.705337371251743,2.707566760766514,2.7082948817361916,2.7075203865923037,2.705244437537679,2.7014707030748846,2.6962053475757934,2.6894570139338954,2.6812367993677384,2.671558224470286,2.660437195624922,2.647891960934174,2.633943059831837,2.6186132665729622,2.6019275278189706,2.5839128945569168,2.5645984486124784,2.5440152240355807,2.522196123655482,2.499175831118702,2.4749907187381455,2.4496787514952447,2.4232793875487295,2.395833475613814,2.367383149583999,2.337971720774428,2.307643568170704,2.276444027070285,2.244419276505073,2.2116162258335543,2.1780824008888753,2.1438658300656304
0.04815912587725078,0.051015528063732524,0.05403131509445323,0.05721441689065228,0.06057305659589605,0.06411575221991138,0.06785131746635781,0.07178886168352044,0.0759377888766126,0.08030779572036156,0.08490886851082748,0.0897512789959919,0.0948455790255641,0.10020259396170031,0.10583341479393296,0.1117493889035702,0.11796210942516432,0.12448340315536645,0.13132531696259728,0.13850010265446974,0.14602020026380597,0.15389821971839884,0.16214692086437865,0.17077919181815418,0.17980802562740072,0.18924649522745746,0.19910772668576626,0.20940487073362055,0.22015107259147296,0.23135944010137938,0.2430430101877835,0.2552147136757821,0.26788733850419644,0.28107349137921583,0.2947855579230179,0.3090356613805927,0.3238356199569512,0.3391969028659676,0.3551305851812284,0.37164730158840364,0.3887571991477849,0.4064698891846798,0.4247943984342995,0.4437391195765269,0.4633117613045229,0.4835192980793945,0.5043679197311179,0.5258629810734904,0.5480089517080402,0.5708093661985041,0.5942667748036247,0.6183826949615654,0.6431575637241714,0.6685906913435327,0.6946802162167942,0.7214230613978869,0.7488148928867289,0.7768500799074868,0.8055216573875953,0.834821290848427,0.8647392439167165,0.8952643486630698,0.9263839789700902,0.9580840271278335,0.9903488838484225,1.0231614218847425,1.0565029834301407,1.090353371467042,1.124690845222321,1.1594921198761745,1.1947323706591524,1.2303852414589476,1.2664228580445223,1.3028158460002768,1.3395333534471916,1.3765430786113464,1.4138113022829242,1.4513029251908514,1.4889815102996706,1.5268093300161507,1.5647474182735952,1.6027556274419363,1.6407926899915066,1.6788162848180532,1.7167831081161262,1.7546489486675516,1.792368767391426,1.829896780981986,1.8671865494409738,1.9041910672918139,1.9408628582441407,1.9771540730591064,2.013016590348512,2.0484021200242726,2.083262309099166,2.1175488495252526,2.151213587742962,2.184208635601666,2.216486482301658,2.248000106997974,2.2787030916984343,2.3085497340817325,2.3374951598564264,2.365495434278342,2.3925076724421506,2.418490147962894,2.4434023996648806,2.467205335898797,2.4898613361129676,2.5113343493115505,2.5315899890409774,2.5505956245561436,2.5683204678297056,2.5847356560812664,2.599814329518219,2.6135317039964474,2.6258651383269744,2.636794195973796,2.6463007009085953,2.654368787409582,2.6609849436143245,2.6661380486599757,2.669819403268677,2.672022753660987,2.6727443087058282,2.6719827502415576,2.66973923652919,2.666017398825421,2.660823331089785,2.65416557286688,2.6460550854110148,2.636505221146674,2.625531686583838,2.6131524988321586,2.5993879358823393,2.58426048084649,2.567794760371783,2.550017477463159,2.5309573389711915,2.510644978020229,2.489112871669692,2.4663952541176846,2.4425280257709123,2.4175486585181556,2.3914960975562276,2.3644106601273487,2.3363339315352207,2.3073086588137124,2.277378642426984,2.246588626383061,2.214984187144327,2.1826116217181823,2.1495178353091666,2.115750228910258
0.04613107716809754,0.04892198661107147,0.05187070378184121,0.054985100535328485,0.05827333712650271,0.061743863652516225,0.06540542069082161,0.06926703907397391,0.07333803874153823,0.07762802660950505,0.08214689339788528,0.08690480935772128,0.0919122188396326,0.09717983364722238,0.10271862512022008,0.10853981489413925,0.11465486428549534,0.1210754622542654,0.12781351189829107,0.13488111543773224,0.14229055765147128,0.15005428773155702,0.15818489952635637,0.1666951101480544,0.17559773692549918,0.18490567268912556,0.19463185938080316,0.2047892599879228,0.21539082880784746,0.22644948005600626,0.23797805483835896,0.24998928651671293,0.262495764503376,0.27550989652988656,0.2890438694430156,0.30310960858987285,0.31771873586272575,0.3328825264830219,0.34861186461306254,0.3649171978927371,0.38180849100769776,0.3992951784042386,0.4173861162749287,0.4360895339476731,0.45541298481928555,0.47536329698281826,0.49594652370573167,0.5171678939234685,0.5390317629200582,0.5615415633739722,0.5846997569535255,0.6085077866516125,0.6329660300544464,0.6580737537431782,0.6838290690307391,0.7102288892389875,0.7372688887231242,0.7649434638514219,0.7932456961484562,0.8221673178092979,0.8516986797903952,0.8818287226802161,0.9125449505490122,0.943833407972375,0.9756786604175156,1.008063778174436,1.0409703240063288,1.07437834468472,1.1082663665649728,1.1426113953469,1.1773889201533543,1.2125729220468326,1.248135887090362,1.2840488240442975,1.3202812867751548,1.3568014014363425,1.3935758984636184,1.4305701494104475,1.4677482086301379,1.505072859792851,1.5425056672063129,1.5800070318894868,1.6175362523285577,1.6550515898245353,1.6925103383216649,1.7298688985856683,1.767082856580875,1.804107065875467,1.8408957338846286,1.8774025117423134,1.9135805875738463,1.9493827829236767,1.9847616520754665,2.019669583985353,2.0540589065338826,2.087881992787717,2.121091368948997,2.1536398236582106,2.185480518305649,2.2165670979971526,2.2468538028118803,2.2762955789833557,2.304848189630116,2.3324683246589464,2.359113709461982,2.3847432120288876,2.409316948096989,2.4327963839655298,2.4551444366052615,2.4763255707012966,2.49630589227554,2.5150532385450552,2.532537263684383,2.5487295201730698,2.5636035354244004,2.5771348834075574,2.5893012509930067,2.60008249876984,2.6094607161039183,2.6174202702269267,2.6239478491687467,2.629032498368757,2.632665650825705,2.634841150670503,2.6355552700716,2.634806719408316,2.6325966506735847,2.6289286540938015,2.6238087479797856,2.617245361849098,2.6092493128860172,2.5998337758311503,2.589014246417936,2.5768084984979525,2.5632365350209017,2.5483205330582983,2.532084783082083,2.5145556227305765,2.4957613653141895,2.475732223332138,2.4545002272888636,2.43209914011497,2.4085643675120725,2.3839328645540814,2.358243038888917,2.331534650894567,2.3038487111516033,2.275227375600827,2.2457138387595728,2.215352225373328,2.18418748088079,2.1522652610702346,2.119631821303187,2.086333905677829
0.04427361397738518,0.047001133007426324,0.04988469608340711,0.05293210472748634,0.05615144397734717,0.05955108365183527,0.06313967882499713,0.06692616945085036,0.0709197790809445,0.07513001261675248,0.0795666530391933,0.08423975705813253,0.08915964962556128,0.09433691725732403,0.09978240010976777,0.10550718275953046,0.11152258363688564,0.11784014306561995,0.1244716098653537,0.1314289264755222,0.13872421256392614,0.14636974708683034,0.15437794877204875,0.16276135500129468,0.17153259907328985,0.18070438583472215,0.19028946567209537,0.20030060686382875,0.21075056629860958,0.2216520585729877,0.2330177234884759,0.24486009197600042,0.257191550483369,0.2700243038695021,0.283370336857447,0.29724137410665186,0.311648838973575,0.32660381103840896,0.34211698248448336,0.3581986134257008,0.3748584862861672,0.3921058593448957,0.4099494195671081,0.42839723485211456,0.44745670583604963,0.46713451739574785,0.4874365900077815,0.508368031124038,0.5299330867321878,0.5521350932758929,0.5749764301156131,0.5984584727162873,0.6225815467530116,0.6473448833299953,0.672746575511531,0.698783536366443,0.7254514587293673,0.7527447768833275,0.7806566303682476,0.8091788301193691,0.8383018271378865,0.868014683893533,0.8983050486552485,0.9291591329414882,0.9605616922761218,0.992496010429255,1.0249438873146481,1.0578856307067455,1.0913000519306377,1.125164465667609,1.1594546940072554,1.1941450748645666,1.229208474866826,1.2646163068008127,1.300338551695526,1.336343785599678,1.3725992110964393,1.4090706935805515,1.4457228023049198,1.482518856185309,1.5194209743328073,1.5563901312644361,1.5933862167227018,1.6303681000151355,1.6672936987650309,1.7041200519447623,1.7408033970433536,1.77729925120045,1.8135624961196775,1.849547466555575,1.8852080421500501,1.920497742376657,1.955369824334102,1.9897773831142715,2.0236734544549253,2.0570111193730147,2.0897436104615315,2.121824419520926,2.153207406185488,2.183846907195843,2.2136978459608274,2.2427158420456004,2.2708573202179907,2.298079618681738,2.3243410961236126,2.3496012372012967,2.3738207561005256,2.3969616977932287,2.4189875366333573,2.439863271933668,2.4595555201749995,2.478032603509451,2.4952646342303506,2.511223594894909,2.5258834138000106,2.5392200355275105,2.551211486292778,2.561837933848815,2.571081741718125,2.5789275175454427,2.5853621553863833,2.590374871769961,2.593957235396561,2.596103190357332,2.596809072785858,2.5960736208783475,2.5938979782442395,2.5902856905749974,2.585242695644787,2.578777306682585,2.5709001891809287,2.5616243312318514,2.5509650075054235,2.53893973701063,2.525568234801938,2.5108723578177035,2.494876045058457,2.477605252333983,2.459087881827832,2.439353706746443,2.418434291337288,2.3963629065762797,2.3731744418391196,2.348905312884143,2.323593366485569,2.297277782065815,2.2699989706836314,2.2417984717412804,2.2127188477787554,2.182803577726141,2.152096948986661,2.1206439487227033,2.0884901547152706,2.0556816261638193
0.04256618146334373,0.04523208367423955,0.04805209509701136,0.05103393575297366,0.054185604229340316,0.05751537879071253,0.061031817711745096,0.0647437587748727,0.06866031787671156,0.07279088668673513,0.07714512930207254,0.08173297784280872,0.08656462693299224,0.09165052701369092,0.09700137643589325,0.10262811228284474,0.10854189987354326,0.11475412090160542,0.12127636016656611,0.12812039085789098,0.13529815835557024,0.14282176251512696,0.1507034384092107,0.158955535502667,0.1675904952430526,0.17662082705402293,0.1860590827248254,0.19591782919529482,0.20620961974223231,0.21694696357987403,0.22814229389426205,0.23980793433874095,0.2519560640254524,0.264598681055603,0.27774756463938005,0.29141423586466736,0.30560991718213854,0.3203454906828325,0.33563145525292915,0.3514778826990624,0.3678943729461502,0.38489000841828014,0.4024733077216735,0.42065217875706545,0.4394338713969913,0.45882492987134044,0.47883114501215696,0.49945750651590787,0.520708155388302,0.5425863367431606,0.5650943531327541,0.5882335185923852,0.6120041135867722,0.6364053410499204,0.6614352837135826,0.6870908629221324,0.7133677991335707,0.7402605743074933,0.7677623963810886,0.7958651660335755,0.8245594459379342,0.8538344326962559,0.8836779316515542,0.9140763347644015,0.9450146017372989,0.9764762445631823,1.0084433156670025,1.0408963998008112,1.0738146098432877,1.1071755866441786,1.1409555030426737,1.1751290721763716,1.2096695601842125,1.2445488033926078,1.2797372300590382,1.3152038867316562,1.350916469266975,1.3868413585306383,1.4229436607885626,1.4591872527775591,1.495534831425894,1.531947968175263,1.5683871678363959,1.6048119318910603,1.6411808261337202,1.677451552526571,1.7135810251222792,1.749525449889537,1.785240408257649,1.8206809441778722,1.8558016544812688,1.89055678229542,1.9249003132657425,1.9587860743112377,1.9921678346296017,2.024999408652618,2.0572347606399304,2.0888281105875177,2.119734041116795,2.149907605001058,2.1793044329782467,2.2078808414926963,2.2355939400036857,2.2624017374953476,2.2882632478207943,2.313138593513219,2.3369891076982987,2.3597774337454025,2.381467622299954,2.4020252253457754,2.421417386954365,2.4396129303877436,2.456582441232831,2.47229834625808,2.48673498769741,2.4998686926821887,2.5116778375590383,2.5221429068495893,2.5312465466278082,2.5389736121111426,2.5453112092833305,2.550248730389233,2.553777883165351,2.5558927136936536,2.5565896227908746,2.555867375870402,2.553727106239159,2.550172311817349,2.545208845294441,2.538844897760255,2.53109097587525,2.5219598726690564,2.5114666320808308,2.499628507378885,2.486464913620353,2.471997374334079,2.4562494626314804,2.439246736970671,2.4210166718185846,2.4015885834740716,2.380993551331914,2.3592643348833073,2.3364352867625593,2.3125422621624425,2.2876225249518285,2.261714650838812,2.2348584279305403,2.207094755047299,2.1784655381531457,2.1490135852684,2.1187825002307643,2.0878165756715736,2.056160685571879,2.0238601777596252
0.04099029062799711,0.04359606171282511,0.046353850618008056,0.04927128572316304,0.0523562689575802,0.055616976777321026,0.059061860376617425,0.06269964507893372,0.06653932885279537,0.07059017989747114,0.0748617332438382,0.07936378631627238,0.08410639340220989,0.0890998589771256,0.09435472983408995,0.09988178596880566,0.10569203017310089,0.11179667629227298,0.1182071361044506,0.12493500478327156,0.13199204490866662,0.1393901689944007,0.1471414205052492,0.1552579533412834,0.16375200977169502,0.17263589680590788,0.18192196099539268,0.19162256166561398,0.20175004258387214,0.21231670207546782,0.22333476160756094,0.23481633286733988,0.24677338336859647,0.2592177006285338,0.27216085496455666,0.28561416096890413,0.29958863772722605,0.31409496785556806,0.3291434554386633,0.3447439829608865,0.36090596732969554,0.37763831509978896,0.394949377014532,0.41284690198937046,0.4313379906699576,0.45042904870545847,0.47012573988498363,0.4904329392922262,0.5113546866401362,0.5328941399537791,0.5550535297753594,0.5778341140706776,0.601236134021006,0.6252587708884482,0.649900104146241,0.6751570710681427,0.7010254279729572,0.7274997133213664,0.7545732128624926,0.7822379270270218,0.8104845407621984,0.8393023960015714,0.8686794669589599,0.8986023384317632,0.929056187293374,0.9600247673481345,0.9914903977149248,1.0234339548971678,1.0558348686877232,1.0886711220468719,1.1219192550803776,1.1555543732324638,1.1895501597955171,1.223878892824442,1.2585114665288923,1.2934174172011634,1.3285649537213524,1.3639209926646059,1.399451198017882,1.4351200254957799,1.4708907714266435,1.5067256261615083,1.5425857319394947,1.5784312451241451,1.614221402706,1.649914592947506,1.6854684300272482,1.7208398325216179,1.755985105543421,1.7908600263387318,1.8254199331256242,1.8596198169412879,1.8934144162476505,1.9267583140300237,1.9596060371085522,1.9919121573685203,2.0236313946028694,2.054718720648759,2.085129464489688,2.114819417985664,2.1437449418862835,2.171863071775304,2.19913162359059,2.225509298360013,2.250955785792248,2.275431866361282,2.2988995115249664,2.321321981721072,2.3426639217890597,2.3628914534721166,2.3819722646620165,2.399875695058867,2.4165728179289165,2.432036517656177,2.446241562797678,2.45916467436758,2.4707845890921742,2.4810821173957907,2.490040195896834,2.497643934213447,2.5038806558995375,2.5087399333540588,2.512213616569344,2.51429585560787,2.5149831167209635,2.5142741920475116,2.512170202855607,2.508674596315117,2.5037931358142567,2.497533884858311,2.489907184613483,2.480925625183409,2.470604010729949,2.458959318573454,2.4460106524305405,2.431779189969542,2.4162881248849755,2.399562603712593,2.3816296576257217,2.362518129471526,2.342258596322535,2.320883287834138,2.2984260007126975,2.274922009611446,2.250407974782326,2.2249218468213656,2.1985027688530496,2.17119097650542,2.1430276960322394,2.1140550409416115,2.0843159074917925,2.053853869414763,2.0227130722262845,1.990938127477825
0.03952938502634993,0.04207626085889347,0.04477292038068335,0.047626891148864814,0.05064596918718287,0.053838219846116184,0.057211977910760665,0.06077584690324607,0.06453869752621819,0.06850966519390214,0.0726981465974971,0.07711379525215119,0.08176651597354445,0.08666645823317669,0.09182400834283203,0.09724978042038358,0.10295460609111934,0.10894952288112185,0.11524576126193338,0.12185473030878402,0.1287880019380628,0.13605729369347122,0.14367445005441792,0.15165142224469413,0.16000024652430067,0.16873302095248588,0.17786188061558483,0.18739897131911815,0.19735642174979567,0.20774631411957778,0.21858065331073478,0.2298713345479235,0.2416301096306151,0.2538685517667686,0.26659801905639885,0.27982961668162076,0.2935741578678266,0.3078421236888387,0.3226436217971453,0.33798834416861384,0.35388552395938105,0.3703438915808585,0.387371630106957,0.40497633013565537,0.42316494423488565,0.4419437411103214,0.4613182596400005,0.4812932629277244,0.5018726925338141,0.523059623048021,0.544856217175133,0.5672636815090205,0.5902822231755257,0.6139110075286212,0.6381481170876152,0.6629905119058555,0.6884339915632611,0.7144731589761604,0.7411013862181677,0.7683107825452955,0.7960921648170188,0.8244350305026605,0.8533275334591365,0.8827564626618684,0.912707224065422,0.9431638257642521,0.9741088666167426,1.0055235284875963,1.0373875722545014,1.0696793377149476,1.1023757475180476,1.1354523152343303,1.168883157663674,1.202641011467928,1.2366972542003476,1.2710219297888046,1.3055837785138553,1.3403502715062685,1.3752876497715223,1.410360967731235,1.44553414125347,1.480770000125534,1.5160303449042685,1.5512760080600463,1.5864669193118217,1.6215621750317022,1.6565201115787467,1.691298382403114,1.7258540387434205,1.760143613722243,1.7941232096273456,1.827748588149356,1.860975263330521,1.893758596963784,1.9260538961669884,1.9578165128434415,1.9890019447276464,2.0195659377036055,2.0494645890729988,2.0786544514416305,2.107092636885008,2.134736921047794,2.161545846827142,2.187478827286776,2.212496247446953,2.2365595645953835,2.2596314067656182,2.2816756690324946,2.3026576072788756,2.322543929094165,2.3413028814729016,2.358904334991106,2.375319864148938,2.3905228235806057,2.404488419846243,2.417193778535664,2.4286180064303617,2.4387422484878294,2.4475497394311416,2.4550258497466535,2.4611581259135527,2.465936324710777,2.4693524414693173,2.471400732161101,2.47207772923938,2.471382251169664,2.4693154056147044,2.465880586261637,2.4610834633040866,2.4549319676166466,2.447436268683581,2.438608746367716,2.4284639566291815,2.4170185913268174,2.404291432257532,2.390303299610647,2.3750769950350743,2.358637239537085,2.341010606445186,2.3222254496963117,2.3023118277139156,2.281301423163674,2.2592274588862162,2.236124610318609,2.2120289147271137,2.186977677583032,2.1610093764211884,2.1341635625267386,2.1064807608005682,2.0780023681565005,2.0487705508049014,2.0188281407770745,1.9882185320430412,1.9569855765720279
